# .PCD v0.7 - Point Cloud Data file format
VERSION 0.7
FIELDS x y z label
SIZE 4 4 4 4
TYPE F F F U
COUNT 1 1 1 1
WIDTH 1330
HEIGHT 1
VIEWPOINT 0 0 0 1 0 0 0
POINTS 1330
DATA ascii
0.36386728 0.10294592 0.99601179 84
0.49916992 0.10239004 0.99535233 84
0.50226122 0.10708658 0.99575067 84
-0.56359893 0.11011525 0.99698168 8
-0.5556336 0.11247748 0.99822158 8
-0.54539394 0.11392506 0.99438882 8
-0.53519493 0.11561754 0.9929812 8
-0.5259378 0.11834878 0.99669844 8
-0.51894134 0.11687841 0.99246639 8
-0.5010621 0.11878094 0.99107146 8
-0.49558917 0.11935098 0.98942715 8
0.34687081 0.11574345 0.99368817 84
0.35019574 0.1113147 0.99238133 84
0.50395471 0.11383256 0.99345237 84
-0.51372635 0.12046681 0.99848592 8
-0.50359493 0.12148248 0.99526274 8
-0.49356627 0.12516879 0.99285895 8
-0.48562565 0.12824547 0.98927993 8
0.336559 0.1268867 0.99392718 84
0.34204686 0.12148674 0.99448413 84
0.50702965 0.12260147 0.99497473 84
0.50955504 0.12766458 0.99542332 84
-0.4857915 0.13499001 0.99400032 8
0.049682118 0.14014345 0.98833382 8
0.056371354 0.13986109 0.98876858 8
0.065436199 0.14014471 0.98965698 8
0.072113976 0.13890685 0.98923719 8
0.096333839 0.13863331 0.9900369 8
0.10282857 0.13870101 0.99004614 8
0.11573805 0.1395366 0.99041498 8
0.12496556 0.13952146 0.98952353 8
0.13027348 0.13963817 0.98892444 8
0.32734898 0.13652223 0.99416161 84
0.33175525 0.1305477 0.9920333 84
0.51332664 0.13524608 0.99525225 84
-0.4822818 0.14377207 0.99605608 8
-0.47569433 0.14837457 0.99230951 8
-0.0203628 0.15109982 0.98835826 8
-0.017699473 0.15087692 0.988653 8
-0.0030497578 0.14991055 0.98995954 8
0.00097029237 0.14971165 0.99022806 8
0.017276108 0.14798881 0.99049217 8
0.025486812 0.1487433 0.99186987 8
0.035513863 0.14739691 0.99201393 8
0.045507822 0.14528506 0.99150783 8
0.055107959 0.14505185 0.99225456 8
0.064649135 0.14530811 0.99321467 8
0.075501919 0.14531398 0.99389923 8
0.08532837 0.14554794 0.99447268 8
0.094587184 0.14580797 0.99517095 8
0.10531884 0.14526798 0.99489075 8
0.11523728 0.14543878 0.99482369 8
0.12420525 0.14582823 0.99425864 8
0.13396557 0.14564402 0.99262077 8
0.14398621 0.14694294 0.99163604 8
0.15569685 0.14843711 0.99086046 8
0.16536188 0.14957376 0.99081755 8
0.17477261 0.14886487 0.99014395 61
0.18560326 0.14919993 0.99109334 61
0.19490406 0.14898075 0.99166024 61
0.20446132 0.14859751 0.99216425 61
0.21528964 0.14792807 0.99218673 61
0.22435677 0.14756294 0.99273276 61
0.23439354 0.14713819 0.99355143 61
0.24606636 0.1464963 0.99414104 61
0.25468987 0.14728567 0.99558234 61
0.26396948 0.14683385 0.99295145 61
0.27480009 0.14783871 0.99239689 61
0.28591779 0.14875305 0.99135035 61
0.29094499 0.14860515 0.99034119 61
0.3054285 0.14914651 0.99433243 84
0.31549954 0.1446306 0.99345666 84
0.51728874 0.14289749 0.99200046 84
0.5208503 0.14877443 0.99400437 84
-0.47481591 0.15487315 0.99631834 8
-0.46825153 0.15494607 0.99070382 8
-0.050199769 0.15823345 0.98965591 8
-0.043533519 0.15796119 0.99054241 8
-0.034413517 0.1568428 0.99124885 8
-0.024693396 0.15601945 0.99209666 8
-0.015260029 0.15553883 0.99309278 8
-0.0058427905 0.15525262 0.99405581 8
0.0053240028 0.15482284 0.99501491 8
0.014802097 0.15424129 0.9954164 8
0.024183216 0.15443826 0.99647564 8
0.035035159 0.15296297 0.99641907 8
0.045385007 0.15285607 0.9973526 8
0.055306274 0.15199748 0.99754393 8
0.06452366 0.15109532 0.99745131 8
0.088070281 0.15123741 0.99889469 8
0.094538853 0.15118101 0.99917489 8
0.10437347 0.15091053 0.99927408 8
0.1286547 0.15111358 0.99775147 8
0.13527162 0.15161052 0.99699855 8
0.14514756 0.15267825 0.99603015 8
0.15458311 0.15521981 0.99678248 8
0.16427225 0.15484524 0.99598426 61
0.17513338 0.15324111 0.99471003 61
0.18375987 0.15369211 0.99613053 61
0.19419008 0.1518625 0.99539137 61
0.20546184 0.15194665 0.99719477 61
0.2139228 0.15148677 0.99735951 61
0.23701055 0.14984322 0.9995535 61
0.282031 0.15012777 0.99600011 61
0.52528727 0.15592982 0.99502736 84
-0.47079295 0.16179314 0.99856031 8
-0.46430153 0.16427606 0.99607432 8
-0.45331821 0.16771418 0.99251932 8
-0.20367509 0.16800971 0.9913491 8
-0.1940978 0.16824558 0.99298483 8
-0.18451108 0.16780618 0.9932183 8
-0.17509758 0.16724174 0.99288219 8
-0.16631331 0.16706522 0.99259907 8
-0.15456823 0.1678464 0.99347168 8
-0.14510627 0.16895977 0.99491054 8
-0.13452326 0.16745305 0.99373919 8
-0.1260376 0.16672282 0.9933188 8
-0.11391597 0.16602081 0.99347579 8
-0.10585481 0.16629122 0.99425536 8
-0.094049014 0.1647522 0.99267513 8
-0.084872074 0.16571981 0.99440289 8
-0.076394357 0.16447344 0.99356651 8
-0.065086491 0.1628883 0.99295843 8
-0.055376191 0.16286935 0.99427307 8
-0.045027576 0.16164781 0.99438608 8
-0.035639983 0.16185494 0.99660957 8
-0.024347838 0.16170366 0.99818307 8
-0.018129203 0.16074316 0.99802113 8
-0.0059006186 0.16099502 0.99956727 8
0.52946168 0.16154838 0.99701953 84
0.53279608 0.16691613 0.99505526 84
-0.45093879 0.17201802 0.99680954 8
-0.44434544 0.17275961 0.99442577 8
-0.43518797 0.17445186 0.99311793 8
-0.42595544 0.17641965 0.99309319 8
-0.41527471 0.17898466 0.99373919 8
-0.4061473 0.17931074 0.99114883 8
-0.25474608 0.17809711 0.9920603 8
-0.24533588 0.1758154 0.99191248 8
-0.2357243 0.17563881 0.99411434 8
-0.22406387 0.1734226 0.99376726 8
-0.21493857 0.17204152 0.99387747 8
-0.20621321 0.17213136 0.99584687 8
-0.19576271 0.17292677 0.99869317 8
-0.18487069 0.17205843 0.99853969 8
-0.16585146 0.17162864 0.99836862 8
-0.15657179 0.17231074 0.99927467 8
-0.12266283 0.17050415 0.99861437 8
-0.10233813 0.1698896 0.99916667 8
-0.099631101 0.1697472 0.99928385 8
-0.07525102 0.16898294 0.99993968 8
0.53774929 0.17338499 0.99402028 84
-0.42101496 0.18031168 0.9978056 8
-0.40417606 0.18277626 0.99646342 8
-0.39364091 0.18304515 0.99373198 8
-0.38458496 0.18301494 0.99211407 8
-0.37447023 0.18488967 0.99475515 8
-0.36532778 0.18409592 0.99331641 8
-0.3538084 0.1839574 0.99223214 8
-0.34404683 0.18434207 0.99054319 8
-0.33382618 0.18738036 0.99259764 8
-0.31897545 0.18956749 0.99210191 8
-0.3012799 0.18934225 0.99114859 8
-0.29501942 0.18946794 0.99258059 8
-0.2864449 0.18760738 0.99247807 8
-0.2751669 0.18510437 0.99329007 8
-0.26532617 0.18260169 0.99434298 8
-0.25472367 0.1814874 0.99723184 8
-0.24815127 0.18044829 0.99787766 8
0.54573166 0.18225753 0.99390996 118
0.5516035 0.18808804 0.99103725 118
-0.32432926 0.19077344 0.99580061 8
-0.31416327 0.19318758 0.9982295 8
-0.30601645 0.19323762 0.99792695 8
-0.29805291 0.19300683 0.9983452 8
-0.28551972 0.18994522 0.99675339 8
0.5558809 0.19095804 0.99299765 118
0.49398175 -0.16062319 0.99975443 81
0.49176747 -0.15358628 1.0053345 81
0.48789865 -0.14305578 1.0059733 47
0.49033031 -0.14865451 1.006961 47
0.48317498 -0.13038369 1.0027362 47
0.48481625 -0.13468096 1.0040065 47
0.481181 -0.12494832 1.0029987 47
0.47653034 -0.11468413 1.0052071 47
0.47172824 -0.10671737 1.00323 47
0.23727742 -0.089544117 1.0045404 8
0.24527578 -0.091040216 1.0043868 8
0.2561326 -0.092113741 1.0033792 8
0.26375982 -0.092566699 1.002903 8
0.27361986 -0.093828253 1.0040375 8
0.28209582 -0.093812183 1.0043732 8
0.2946614 -0.091995187 1.0034579 8
0.30269021 -0.091867678 1.0074615 8
0.45856187 -0.090626486 1.0067887 83
0.4645237 -0.096706428 1.0035256 83
0.1986531 -0.080903158 1.0089464 8
0.20640829 -0.082044885 1.0066849 8
0.21491416 -0.083144948 1.004204 8
0.22633709 -0.085913397 1.0032612 8
0.2317992 -0.088319428 1.0046797 8
0.24549836 -0.08841154 0.99983275 8
0.30571452 -0.087928079 1.0016234 8
0.315265 -0.084524833 1.0037439 8
0.32538021 -0.079657987 1.0064394 8
0.44888383 -0.082277834 1.0059016 47
0.45462462 -0.086385138 1.0046297 47
0.54046994 -0.081104718 1.0049621 94
-0.36066028 -0.071026169 1.0098054 8
-0.35508645 -0.071050867 1.0078368 8
-0.34450379 -0.073028155 1.0071616 8
-0.3353534 -0.073407523 1.0059327 8
-0.32563776 -0.072637908 1.0050927 8
-0.31461444 -0.072372943 1.0071725 8
0.17663753 -0.072594427 1.0079767 8
0.1859339 -0.073666677 1.0053647 8
0.19466914 -0.07546708 1.0038792 8
0.20365781 -0.076661646 1.0013533 8
0.21158452 -0.078001216 0.99942756 8
0.32839024 -0.077526554 1.0060532 8
0.33415133 -0.073446952 1.0061009 8
0.43546873 -0.072679184 1.0057009 47
0.4449873 -0.077642523 1.0029752 47
0.53849322 -0.076500662 1.0019894 94
0.54460222 -0.073022939 1.0081919 94
-0.4309639 -0.061331522 1.0090275 8
-0.42411429 -0.060476094 1.0066338 8
-0.41389593 -0.061844982 1.0070093 8
-0.40583789 -0.062783062 1.0077744 8
-0.39532086 -0.062219515 1.006876 8
-0.38491744 -0.062580347 1.006374 8
-0.37534928 -0.063361578 1.0051399 8
-0.36522314 -0.065095022 1.0040821 8
-0.35423988 -0.067245767 1.0028062 8
-0.34563315 -0.068279296 1.0015953 8
-0.33527127 -0.068715714 1.0002377 8
-0.32720375 -0.068834253 1.0001485 8
-0.31449309 -0.068963081 1.0025151 8
-0.30464438 -0.067506939 1.0044863 8
-0.29509053 -0.063461028 1.0048003 8
-0.28565809 -0.061045758 1.0076749 8
0.13532662 -0.061641436 1.0091197 8
0.1451688 -0.062917769 1.0077142 8
0.15565011 -0.062852092 1.0048214 8
0.16445303 -0.06640169 1.0053288 8
0.17400372 -0.067260221 1.0029739 8
0.18239079 -0.068787351 1.0015802 8
0.33782041 -0.069054097 1.0028505 8
0.34498167 -0.065234341 1.0029612 8
0.35485286 -0.06265185 1.0049579 8
0.36577755 -0.061837036 1.0074513 47
0.37556532 -0.061575718 1.008549 47
0.38444728 -0.060971759 1.0071507 47
0.39509356 -0.061241448 1.0058409 47
0.40605435 -0.062251054 1.0043685 47
0.41470385 -0.063750595 1.0033101 47
0.42540529 -0.06764333 1.0043339 47
0.43255967 -0.069383986 1.0018412 47
0.53838581 -0.068417273 0.99991691 94
0.54483402 -0.065699175 1.0042992 94
0.55121005 -0.061437011 1.0069988 94
-0.45404872 -0.051273998 1.0064669 8
-0.44423467 -0.054907892 1.006348 8
-0.43572137 -0.056176644 1.0047134 8
-0.42599854 -0.056442242 1.0026752 8
-0.41737792 -0.056771386 1.001967 8
-0.40383378 -0.057023745 1.0019312 8
-0.3952466 -0.056941476 1.0014036 8
-0.38561884 -0.057143774 1.0006845 8
-0.37710381 -0.058476284 1.0002965 8
-0.29067051 -0.058622275 1.0013552 8
-0.28433648 -0.056162391 1.0020992 8
-0.27618372 -0.054053716 1.0041589 8
-0.26543114 -0.051928904 1.0061476 8
-0.25497779 -0.050866753 1.0074803 8
-0.24849433 -0.051007833 1.0086852 8
-0.23174801 -0.050098699 1.0073067 8
-0.22558443 -0.050881833 1.0079089 8
-0.2146049 -0.051441789 1.0075163 8
-0.20494133 -0.050842296 1.0061086 8
-0.19482622 -0.051603984 1.0066288 8
-0.18453877 -0.052191421 1.0069418 8
-0.17506301 -0.051532406 1.0060127 8
-0.16406666 -0.05235032 1.006362 8
-0.15529162 -0.053038653 1.0068276 8
-0.14514507 -0.052838959 1.0062336 8
-0.13524376 -0.052815411 1.0061734 8
-0.12509528 -0.052169733 1.0054353 8
-0.1146955 -0.051775675 1.0051641 8
-0.10455368 -0.051589325 1.0055848 8
-0.094956264 -0.050794717 1.0054173 8
-0.085602313 -0.052458152 1.008044 8
-0.075419344 -0.050867837 1.0075545 8
-0.066408567 -0.050714798 1.0085373 8
-0.055465449 -0.049963746 1.0090219 8
-0.048609775 -0.04949807 1.0092515 8
0.086332954 -0.050617278 1.0088254 8
0.096701629 -0.05193755 1.0082629 8
0.105503 -0.05292679 1.0077485 8
0.1145893 -0.05413856 1.0071993 8
0.12545986 -0.054176357 1.0054693 8
0.13467002 -0.055130698 1.0041778 8
0.14400798 -0.055506468 1.0020268 8
0.15448141 -0.057049401 1.0003669 8
0.16157638 -0.058800861 0.99949151 8
0.35763374 -0.058742683 0.99960685 8
0.36461353 -0.058297724 1.000931 47
0.37501034 -0.058849253 1.0031979 47
0.38495842 -0.058002107 1.0013593 47
0.40220815 -0.059566021 1.0002275 47
0.54660702 -0.058407683 1.000887 94
0.55385792 -0.054113947 1.0039018 94
0.56129509 -0.049976833 1.0067919 94
-0.48104897 -0.042720072 1.0095086 8
-0.47500038 -0.043135166 1.0070989 8
-0.46578044 -0.045554824 1.005581 8
-0.45618075 -0.04558365 1.002128 8
-0.44322044 -0.049363934 1.0006751 8
-0.43803111 -0.050158147 0.99980479 8
-0.27171794 -0.048862234 0.99927557 8
-0.26397586 -0.048190892 1.0014232 8
-0.25536227 -0.046837371 1.0014522 8
-0.24473214 -0.046744976 1.0023835 8
-0.23413655 -0.046476256 1.0022017 8
-0.22495441 -0.045900509 1.001187 8
-0.21552898 -0.046209216 1.0011988 8
-0.20373774 -0.046434995 1.001158 8
-0.19508086 -0.04674821 1.0013976 8
-0.18569396 -0.046391327 1.0009109 8
-0.17340894 -0.046668656 1.0009493 8
-0.16606683 -0.047312759 1.0013937 8
-0.15438858 -0.047205813 1.0010344 8
-0.14757283 -0.047249567 1.0008223 8
-0.13411388 -0.047865953 1.0012374 8
-0.12587425 -0.046911813 1.0002725 8
-0.11577109 -0.046969004 1.0002979 8
-0.10142791 -0.047548622 1.0015998 8
-0.093639903 -0.046409093 1.0009767 8
-0.085066684 -0.046192557 1.0016531 8
-0.07523632 -0.046101805 1.0025291 8
-0.064974904 -0.045610327 1.0031465 8
-0.055156916 -0.045410551 1.0042267 8
-0.044629432 -0.044416465 1.0044177 8
-0.035222925 -0.044415437 1.005371 8
-0.025467901 -0.044587523 1.0063558 8
-0.014438381 -0.043742206 1.0057974 8
-0.0053164279 -0.043788597 1.0059125 8
0.0043102107 -0.044902109 1.006717 8
0.014755386 -0.045461688 1.006937 8
0.023967223 -0.044566952 1.0061134 8
0.036151543 -0.04437276 1.0064983 8
0.044958975 -0.044408254 1.0067687 8
0.054183085 -0.044094108 1.0065913 8
0.065553524 -0.044580407 1.0065905 8
0.075127028 -0.044897966 1.0060697 8
0.084618106 -0.045085151 1.004827 8
0.095416859 -0.045725491 1.003682 8
0.1045182 -0.046020105 1.0027957 8
0.11365269 -0.045992829 1.0015427 8
0.12522717 -0.046563201 1.0002234 8
0.13429616 -0.047304958 0.99880528 8
0.14227058 -0.048924819 0.99788904 8
0.55835986 -0.046914019 1.0019854 94
0.56381696 -0.044694234 1.0054611 94
0.67903823 -0.038762666 1.0179847 105
-0.4931986 -0.033468094 1.0078034 8
-0.48465142 -0.034852076 1.0049915 8
-0.47551084 -0.036797162 1.0024731 8
-0.46560484 -0.039344009 1.0004619 8
-0.054862846 -0.04048818 0.99949753 8
-0.042666707 -0.039411098 1.0000149 8
-0.031804595 -0.039196033 1.0013387 8
-0.0235698 -0.038717624 1.0014544 8
-0.01629472 -0.038180526 1.0011901 8
-0.0052408576 -0.037718937 1.0009435 8
0.003746507 -0.037547104 1.0005542 8
0.01468186 -0.038977008 1.001291 8
0.02461287 -0.037692871 1.0004734 8
0.034258828 -0.038393896 1.0015537 8
0.044782188 -0.038570851 1.0019742 8
0.053797301 -0.038021635 1.0017104 8
0.064586155 -0.037342194 1.0010232 8
0.073834084 -0.038040679 1.0009962 8
0.083755426 -0.038301576 0.99998051 8
0.097035058 -0.040054731 0.9993366 8
0.10181454 -0.041069079 0.99962056 8
0.56820577 -0.036939073 1.004652 94
0.57224029 -0.031070502 1.0055579 77
0.68493897 -0.032674883 1.0166782 105
-0.50302374 -0.023011975 1.0074606 8
-0.49492067 -0.024900969 1.0035869 8
-0.48667991 -0.027457697 1.000978 8
0.56936234 -0.02549082 1.0005594 77
0.57481945 -0.025194701 1.0054944 77
0.57992053 -0.025576113 1.010051 77
-0.51005906 -0.014545148 1.0106745 8
-0.50419283 -0.013983333 1.005419 8
-0.49763289 -0.014514291 1.0005783 8
0.57345724 -0.014864078 1.0012283 77
0.58054543 -0.01230567 1.0073189 77
-0.51144505 -0.0085816067 1.0113472 8
-0.50457013 -0.0052371444 1.0044599 8
-0.49913588 -0.008264035 1.0003307 8
0.57747024 -0.0053192098 1.0034796 77
0.58339071 -0.0039632432 1.0091211 77
-0.50936526 0.0019698001 1.0090504 8
-0.50319481 0.0052889725 1.0020165 8
0.57548368 0.0055851857 1.0012075 77
-0.50565815 0.014473558 1.0032564 8
0.57629532 0.015102373 1.0023443 77
-0.50975728 0.023255875 1.004577 8
0.57464039 0.02477598 1.0014267 77
0.58112252 0.023647752 1.0084752 77
-0.53336871 0.038643204 1.0071418 8
-0.52375907 0.034745164 1.0060542 8
-0.51563859 0.030412856 1.0041305 8
0.57570505 0.035606325 1.0063909 77
-0.5633353 0.047446672 1.0067354 8
-0.55479532 0.046439786 1.0019864 8
-0.54014438 0.042498525 1.0011184 8
0.56781453 0.041513517 1.0021167 77
0.57061589 0.046033662 1.0080096 77
-0.69233823 0.058673479 1.003629 11
-0.6852631 0.05348127 1.0065278 8
-0.67459232 0.052165542 1.0027525 8
-0.66407198 0.05073275 1.0046533 8
-0.65315783 0.051244218 1.002537 8
-0.6456368 0.051656842 1.0040805 8
-0.6372385 0.052001182 1.0009174 8
-0.60539848 0.049697388 1.0022645 8
-0.58563703 0.048879888 1.0001681 8
-0.57373941 0.04858632 1.004128 8
-0.56582135 0.04855739 1.0000852 8
0.55685401 0.056046702 1.0015115 77
0.56335652 0.053880483 1.0069014 77
-0.70255899 0.063772023 1.0082778 11
-0.69611949 0.064734437 1.0012332 11
0.54998708 0.064612642 0.99719733 77
0.55300117 0.061881229 1.0001988 77
-0.70668739 0.077587366 1.0051954 3
0.55211711 0.075921737 0.99859899 77
-0.7060228 0.085125409 1.0057919 3
-0.699812 0.081954181 0.99891633 3
0.40311041 0.08848618 1.0026485 84
0.4152014 0.086626381 1.003956 84
0.4244245 0.08568006 1.005106 84
0.43863034 0.083879195 1.0026699 84
0.44247729 0.083742216 1.0022148 84
0.46006411 0.085788585 1.0081488 84
0.46482897 0.08514984 1.0035208 84
0.47750425 0.088363104 1.0041044 84
0.48067296 0.088831902 0.99973017 84
-0.70073944 0.096178398 1.0090795 5
-0.6953274 0.095098607 1.0029756 5
-0.68598258 0.097997829 1.0011345 5
-0.66438448 0.1008018 0.9974463 9
0.37671199 0.09988191 1.0037228 84
0.38414058 0.09661983 1.0050086 84
0.39464009 0.09257853 1.0056204 84
0.48605624 0.093422346 1.0037866 84
0.49172449 0.097106412 1.0027945 84
-0.68321329 0.10016812 1.0028479 5
-0.67603028 0.10186183 1.0026037 9
-0.66214883 0.10311887 1.0029258 9
-0.65467274 0.10331453 1.0031432 9
-0.64523768 0.1029017 1.0029247 30
-0.63814884 0.10168423 0.99950951 30
-0.59993708 0.10441554 0.99868274 8
-0.58159679 0.10716218 1.0021774 8
-0.57294196 0.1094084 1.0023429 8
0.36667323 0.10716676 1.0043402 84
0.37267682 0.10346846 1.0051295 84
0.49713871 0.10285927 1.004166 84
0.50023973 0.10817084 1.0059295 84
-0.57203174 0.11092444 1.0071222 8
-0.56461722 0.11384015 1.0091277 8
-0.54568923 0.11771357 1.0029317 8
-0.53509808 0.11970407 1.0028721 8
0.35506308 0.1157153 1.002714 84
0.36252567 0.11208619 1.0064397 84
0.50363344 0.11474099 1.003198 84
-0.53062564 0.1216475 1.0093334 8
-0.52196354 0.12177775 1.0042979 8
-0.50673157 0.12569553 1.0021534 8
-0.49817425 0.12735513 0.99827677 8
0.34553805 0.12564582 1.0037766 84
0.50778681 0.12246773 1.0050225 84
0.51108319 0.12884025 1.0040234 84
-0.49638823 0.13721777 1.0048437 8
0.33521396 0.13463758 1.0023525 84
0.5151754 0.13554756 1.0060246 84
-0.49328265 0.14335975 1.0060699 8
-0.48771501 0.14630428 1.0028191 8
0.11392435 0.14983061 0.99834168 8
0.25911483 0.14976402 1.0001856 61
0.26442051 0.14977826 0.99981153 61
0.31590536 0.14818712 1.0009443 84
0.32456487 0.14323029 1.0017425 84
0.52059162 0.14491384 1.0045295 84
-0.49136242 0.15165618 1.0095086 8
-0.48397902 0.15484227 1.0052029 8
-0.4779847 0.15829915 1.0020255 8
0.017335707 0.15936182 1.0001953 8
0.023762485 0.15915133 1.0005796 8
0.035990275 0.15822822 1.0008565 8
0.04464341 0.1594169 1.0025007 8
0.054187655 0.15694904 1.0012965 8
0.065347672 0.15618442 1.0013285 8
0.074589513 0.15463333 1.000785 8
0.083880275 0.15496996 1.0013992 8
0.095311217 0.15536886 1.0024631 8
0.10542076 0.15451029 1.002193 8
0.1146417 0.15486014 1.0023428 8
0.12483235 0.15568553 1.0021964 8
0.13537876 0.15785696 1.0021082 61
0.14416115 0.15957889 1.0023477 8
0.15206125 0.15899485 1.0008767 8
0.16849837 0.15948805 1.0014904 61
0.17523198 0.15810627 1.0005226 61
0.18499056 0.15746421 1.0017524 61
0.19534679 0.15560506 1.0011662 61
0.20546941 0.15610148 1.0042552 61
0.21510676 0.15468027 1.0033802 61
0.22569476 0.15363589 1.0036306 61
0.23433551 0.15389618 1.0060476 61
0.24480931 0.1521292 1.0046674 61
0.25483161 0.15215309 1.005057 61
0.26494297 0.15329167 1.0070988 61
0.27461603 0.15212104 1.0028232 61
0.2845057 0.1535622 1.0045298 61
0.29458418 0.15454741 1.0067074 61
0.30333391 0.15354721 1.0049133 61
0.31103846 0.15099855 1.0030519 84
0.52757102 0.15637538 1.0043713 84
-0.48030055 0.16290273 1.0079489 8
-0.47483468 0.16560173 1.0059358 8
-0.46567428 0.16775222 1.0011706 8
-0.091459617 0.16913931 0.99873418 8
-0.064370148 0.16803372 1.0004296 8
-0.054044396 0.16928472 1.0039934 8
-0.04461496 0.1678614 1.0030795 8
-0.03527946 0.16687302 1.0031017 8
-0.025840165 0.16741188 1.0048096 8
-0.015041213 0.16677058 1.0048305 8
-0.0058471672 0.16609773 1.004776 8
0.0046790899 0.16525267 1.0047463 8
0.014681191 0.16517615 1.0054398 8
0.025059776 0.16516152 1.00599 8
0.03482417 0.16415511 1.0057214 8
0.044809666 0.16407068 1.0063758 8
0.053991828 0.16338313 1.0064449 8
0.064889804 0.16277915 1.0065428 8
0.074875541 0.16133188 1.0059372 8
0.0844886 0.16106983 1.006408 8
0.095565274 0.16133364 1.0073973 8
0.10567819 0.16071174 1.0073521 8
0.11399169 0.16102093 1.0075142 8
0.12572701 0.16134493 1.0066297 8
0.13396607 0.16330144 1.007468 8
0.14523703 0.16474997 1.007136 61
0.1547804 0.16323315 1.0050465 8
0.16352876 0.16406812 1.0065435 61
0.17504689 0.16261986 1.0068579 61
0.18486546 0.16154158 1.007964 61
0.19299832 0.1606482 1.0089651 61
0.53450197 0.16576597 1.0063506 84
-0.46631622 0.17143914 1.0065075 8
-0.45562348 0.17559417 1.0048677 8
-0.44510323 0.17834474 1.0033141 8
-0.43693244 0.17821074 0.99964732 8
-0.23237239 0.17864193 0.99952829 8
-0.22591804 0.178396 1.0008547 8
-0.2152884 0.17753626 1.0017644 8
-0.20482071 0.17728996 1.0035408 8
-0.19463061 0.17650709 1.003891 8
-0.18626006 0.1764724 1.0046 8
-0.17557025 0.17540373 1.0035549 8
-0.1642241 0.17612128 1.0046302 8
-0.15443386 0.17484346 1.0028816 8
-0.14514546 0.17548785 1.0041497 8
-0.13405669 0.17542714 1.0048087 8
-0.12567489 0.17553563 1.0058668 8
-0.1155308 0.17259416 1.002459 8
-0.10436734 0.17414093 1.0056278 8
-0.094619863 0.17247476 1.0037072 8
-0.085094728 0.17246521 1.0040561 8
-0.076465197 0.17171595 1.0041518 8
-0.066051632 0.17122729 1.0052552 8
0.54383457 0.17706417 1.0076811 84
-0.44212362 0.18213031 1.0089474 8
-0.43608004 0.18249474 1.0068573 8
-0.42480525 0.18209641 1.0024647 8
-0.41537783 0.18431288 1.0037071 8
-0.40550923 0.18741086 1.0064505 8
-0.39491808 0.18753034 1.0028352 8
-0.38449419 0.18833177 1.0022969 8
-0.37211016 0.18849492 1.0016491 8
-0.36591399 0.19072396 1.0059111 8
-0.35547876 0.18999396 1.0035521 8
-0.3448779 0.18946491 1.0002271 8
-0.33792505 0.18993746 0.99908572 8
-0.27172315 0.188151 1.0003049 8
-0.2636179 0.18667921 1.0019701 8
-0.25487199 0.185095 1.0031832 8
-0.24433056 0.18353328 1.0044152 8
-0.23496416 0.18218158 1.0049225 8
-0.22487596 0.18251753 1.0083494 8
-0.21542051 0.18160711 1.0087312 8
-0.34221014 0.19334082 1.0087785 8
-0.33595994 0.19322856 1.0060703 8
-0.32692841 0.19382256 1.0037388 8
-0.31915507 0.19391571 1.0011358 8
-0.2925483 0.1942559 1.0024538 8
-0.28518325 0.19404784 1.005035 8
-0.27883965 0.19323538 1.0067326 8
-0.26669911 0.19010088 1.0069563 8
0.49243084 -0.14700386 1.015867 47
0.48845547 -0.13606857 1.0149819 47
0.48432228 -0.12734546 1.0119696 47
0.47765565 -0.11344896 1.0154669 47
0.48032537 -0.11875502 1.0130292 47
0.47205785 -0.1068113 1.0134393 47
0.23401827 -0.093564421 1.0146871 8
0.2447429 -0.094921067 1.0134705 8
0.25356701 -0.094954275 1.0104764 8
0.26531592 -0.097267464 1.0137961 8
0.27378699 -0.097799115 1.0146075 8
0.28731844 -0.096705779 1.0124841 8
0.29850203 -0.096360058 1.0165535 8
0.30424553 -0.095342681 1.0179693 8
0.3102738 -0.092878155 1.0167431 8
0.4569273 -0.092157044 1.0164927 47
0.46304315 -0.09694396 1.0123817 47
-0.33339313 -0.081028357 1.0191838 8
-0.32249507 -0.080546044 1.0194554 8
0.17865939 -0.081182413 1.0193527 8
0.18586698 -0.081361592 1.0162241 8
0.19526073 -0.082969114 1.0140982 8
0.20449474 -0.086056143 1.0144823 8
0.21463528 -0.088436879 1.013026 8
0.22379318 -0.090289421 1.0120956 8
0.31447068 -0.089544229 1.0128118 8
0.32328698 -0.084361963 1.0123194 8
0.33235383 -0.08131779 1.0179888 8
0.44636589 -0.083773553 1.0151448 47
0.45200241 -0.087978452 1.0154725 47
-0.4237144 -0.069715813 1.0183238 8
-0.41381785 -0.070572115 1.0181531 8
-0.40439624 -0.071103983 1.0186125 8
-0.39629042 -0.070704527 1.0176466 8
-0.38399383 -0.07119517 1.0173142 8
-0.3751843 -0.071621805 1.0159276 8
-0.36518615 -0.073718235 1.0156242 8
-0.354507 -0.075199328 1.0135664 8
-0.3455703 -0.076956876 1.0132991 8
-0.33382499 -0.077498659 1.012368 8
-0.32494327 -0.077950776 1.013791 8
-0.31554589 -0.077005491 1.0145787 8
-0.30497038 -0.074655853 1.0149623 8
-0.2938253 -0.07036908 1.0151718 8
0.12649475 -0.071901709 1.0193111 8
0.13507186 -0.071932942 1.0180361 8
0.14545293 -0.072730646 1.0169282 8
0.15453839 -0.07338579 1.0158165 8
0.16528951 -0.074039377 1.0136689 8
0.17521727 -0.076714426 1.0137857 8
0.18298952 -0.078222454 1.0128069 8
0.33553404 -0.077372119 1.0142264 8
0.34284925 -0.07399644 1.0162283 8
0.35088772 -0.070134021 1.0159776 8
0.41458386 -0.069363587 1.0173262 47
0.4268502 -0.0732041 1.0173817 47
0.43484694 -0.075944088 1.0140529 47
0.44294706 -0.080005363 1.0119463 47
0.54696637 -0.076369241 1.0132073 94
0.5519219 -0.069888003 1.01433 94
-0.45258272 -0.061929636 1.0174633 8
-0.44344109 -0.06229328 1.0143996 8
-0.43535781 -0.064672828 1.0144029 8
-0.42483714 -0.065287784 1.0122879 8
-0.41437271 -0.067114569 1.0132564 8
-0.40430564 -0.06741716 1.0133954 8
-0.3957921 -0.067399189 1.0130368 8
-0.38630182 -0.067844391 1.0128053 8
-0.37608093 -0.067838646 1.0108714 8
-0.36978176 -0.070537157 1.0125279 8
-0.30069965 -0.070250846 1.0106955 8
-0.294148 -0.068095602 1.0115565 8
-0.28430173 -0.06632293 1.0159682 8
-0.27631506 -0.06264089 1.0158148 8
-0.2688376 -0.061735354 1.0187453 8
-0.2040289 -0.061137896 1.0194367 8
-0.17513828 -0.062361386 1.0186713 8
-0.16521643 -0.061889205 1.017573 8
-0.15678084 -0.061671179 1.0167174 8
-0.14454517 -0.062455848 1.0173116 8
-0.13485953 -0.062772214 1.0176293 8
-0.12522952 -0.062800467 1.0175824 8
-0.11553279 -0.062617317 1.0177397 8
-0.10608266 -0.062126353 1.0177469 8
-0.094718859 -0.061194617 1.017602 8
-0.087953627 -0.06190839 1.0193782 8
0.089047469 -0.06303785 1.0195224 8
0.09564729 -0.063029185 1.0180421 8
0.10502219 -0.063933238 1.0166112 8
0.11415647 -0.064836763 1.0154618 8
0.12399819 -0.065911531 1.014612 8
0.13427724 -0.065564759 1.0124683 8
0.14574748 -0.067832895 1.0120766 8
0.15505406 -0.068752341 1.0106064 8
0.34657952 -0.06925007 1.0107599 8
0.35629568 -0.067896925 1.0150063 8
0.36488369 -0.065957569 1.0150729 47
0.37615946 -0.064354926 1.0140396 47
0.38561913 -0.06533248 1.0160762 47
0.39438775 -0.065402575 1.0152104 47
0.40396962 -0.065931059 1.0135858 47
0.41519383 -0.068301111 1.014307 47
0.42283776 -0.069403432 1.0107919 47
0.55520207 -0.062990025 1.0121833 94
-0.48485684 -0.050610024 1.0189919 8
-0.47422922 -0.052552931 1.0156354 8
-0.4652251 -0.054168861 1.0135586 8
-0.45590472 -0.056783039 1.0128363 8
-0.44684985 -0.058494534 1.0112325 8
-0.27277127 -0.058230907 1.011716 8
-0.26556572 -0.057297993 1.0139334 8
-0.25677371 -0.055056669 1.0135493 8
-0.24479248 -0.053947233 1.0136489 8
-0.23518533 -0.053977855 1.0132922 8
-0.22353879 -0.056455765 1.0154932 8
-0.21498778 -0.056900371 1.0149384 8
-0.20469251 -0.05777178 1.0147947 8
-0.1950044 -0.057980403 1.0142108 8
-0.18556479 -0.058042407 1.0137957 8
-0.17473139 -0.057840664 1.0131106 8
-0.1657874 -0.056678407 1.0112822 8
-0.15395045 -0.058215342 1.0125166 8
-0.14593147 -0.058560729 1.012686 8
-0.13503997 -0.058489658 1.0124443 8
-0.1241629 -0.058383033 1.0122356 8
-0.1154023 -0.058638319 1.0128447 8
-0.10525786 -0.057599321 1.0123075 8
-0.09484008 -0.057073206 1.0125145 8
-0.085514657 -0.05754216 1.0140178 8
-0.075039402 -0.056194659 1.0138415 8
-0.064818136 -0.055774134 1.0148206 8
-0.055738587 -0.054585434 1.0141613 8
-0.043977335 -0.054083843 1.0144917 8
-0.035352319 -0.053067826 1.0139567 8
-0.025276573 -0.053234752 1.0145036 8
-0.013855491 -0.054355688 1.0158933 8
-0.004521254 -0.053468566 1.0150601 8
0.0054587275 -0.054165721 1.0156059 8
0.015148875 -0.05380505 1.01501 8
0.024245707 -0.054051507 1.0150878 8
0.035906702 -0.054092769 1.0151408 8
0.045623783 -0.054679077 1.0157778 8
0.05473008 -0.054312769 1.015379 8
0.064676113 -0.053965472 1.0144083 8
0.074725613 -0.055079915 1.0142862 8
0.085036807 -0.056364201 1.0138993 8
0.094208159 -0.056448624 1.0123786 8
0.10259613 -0.057759475 1.0119522 8
0.11808194 -0.059139401 1.0104235 8
0.55943233 -0.058862649 1.0122062 94
0.56352508 -0.054608446 1.0124242 94
0.57106537 -0.051133368 1.0168356 94
-0.49206889 -0.042941388 1.0152029 8
-0.4852961 -0.045132309 1.0137072 8
-0.47619116 -0.047329281 1.0113024 8
-0.021033846 -0.0482953 1.0097837 8
-0.016900666 -0.048260756 1.009817 8
0.0092788581 -0.047621507 1.0090187 8
0.028582757 -0.048372895 1.0096844 8
0.031354796 -0.047853265 1.0092427 8
0.058882535 -0.048231825 1.0098212 8
0.065749943 -0.048698947 1.009798 8
0.57471138 -0.044194154 1.0147309 94
0.67438996 -0.041350417 1.0195485 105
0.68431848 -0.03990531 1.0186758 105
0.69346333 -0.039510533 1.0209396 111
-0.50526404 -0.032520723 1.0144906 8
-0.49665949 -0.037083402 1.0124497 8
-0.48900017 -0.039272755 1.0103573 8
0.57734692 -0.036424417 1.0120701 94
0.58529335 -0.0341837 1.016819 77
0.66902339 -0.032177716 1.0171797 111
0.6755448 -0.034506857 1.0171475 105
0.68469441 -0.033928521 1.0168732 105
0.69254029 -0.034412861 1.0193853 111
-0.51889753 -0.019749416 1.0200552 8
-0.51320827 -0.023381907 1.0155512 8
-0.50745803 -0.025259079 1.0117046 8
0.58544308 -0.024626907 1.0135632 77
0.59381521 -0.023933116 1.0181364 77
0.59955275 -0.020419998 1.0196809 77
0.66596693 -0.027773257 1.0174793 111
0.67430049 -0.025751701 1.0165504 111
0.68587565 -0.028635748 1.0171337 111
0.69236177 -0.02558987 1.0203385 111
-0.51616567 -0.014038271 1.0163308 8
0.58582515 -0.015802961 1.0116724 77
0.59474725 -0.015529947 1.0169113 77
0.60058683 -0.016462941 1.019644 77
0.6811648 -0.019249707 1.0190564 111
-0.51610708 -0.0049506486 1.0158969 8
0.58704627 -0.0045636729 1.0114589 77
0.59394324 -0.0073186299 1.0162761 77
-0.51643085 0.0028828832 1.0169294 8
-0.51097775 0.0076968959 1.009933 8
0.58542925 0.0057261321 1.0108882 77
0.59230012 0.0044577345 1.0164289 77
-0.51088899 0.012969672 1.0092885 8
0.5862546 0.015385379 1.0130299 77
-0.52415711 0.028893365 1.0177203 8
-0.51720309 0.025518401 1.0124276 8
0.5835157 0.025468295 1.0117995 77
-0.5341391 0.036979139 1.012787 8
-0.52554804 0.032864086 1.0130311 8
0.58489197 0.033339132 1.0165817 77
-0.68401921 0.050220039 1.0136888 8
-0.6744228 0.048279755 1.0156739 32
-0.66346163 0.048464712 1.0178188 32
-0.6067329 0.049232535 1.0177876 8
-0.56958491 0.047440723 1.0126699 8
-0.55915868 0.045714412 1.0101123 8
-0.54117978 0.039721429 1.0127845 8
0.5798527 0.045385551 1.0172803 77
-0.69690782 0.054427758 1.0133263 11
-0.6442911 0.049404394 1.0169988 32
-0.63321775 0.049994312 1.0145156 32
-0.62645501 0.049827997 1.0154991 32
-0.61665076 0.049720943 1.0114576 8
0.56938946 0.059839796 1.0188431 77
0.57496881 0.054235145 1.0189774 77
-0.71184093 0.064390436 1.0167036 3
-0.70676512 0.06115986 1.0142217 11
-0.69969702 0.059041042 1.0096602 11
0.55964381 0.065842152 1.0107603 77
-0.71583706 0.076377481 1.015457 3
-0.70829374 0.071033843 1.0090519 3
0.554075 0.071198963 1.0061901 77
-0.71606433 0.080024503 1.0161735 3
0.41559947 0.08987806 1.0127681 84
0.4204748 0.090677381 1.0176216 84
0.43532681 0.087171145 1.0141712 84
0.44836858 0.087675259 1.0188222 84
0.45443502 0.086677 1.014014 84
0.47478375 0.089566588 1.0160292 84
-0.70674229 0.095255822 1.0132955 5
-0.69811559 0.098720789 1.0103956 5
0.39515388 0.096841097 1.0138317 84
0.40557829 0.092424534 1.0126601 84
0.48291105 0.09242551 1.012917 84
0.49063459 0.097560108 1.0128996 84
-0.69340789 0.10345176 1.0141027 5
-0.68445563 0.10528893 1.0136471 9
-0.67647558 0.1060034 1.0130081 9
-0.66622812 0.1058137 1.0128274 9
-0.6543774 0.10551251 1.0142008 30
-0.64515179 0.10487985 1.0142546 30
-0.63884026 0.10445242 1.013912 30
-0.61038524 0.10522947 1.0123744 0
-0.59123188 0.10778854 1.0146137 33
-0.58426523 0.11043504 1.0177525 33
0.37574089 0.10694339 1.0137109 84
0.38535771 0.10252269 1.0157065 84
0.49691036 0.10369219 1.0128877 84
0.50113863 0.10853829 1.0174091 84
-0.57122397 0.11392415 1.016389 8
0.35737598 0.11951112 1.0108949 84
0.36692628 0.11424304 1.015413 84
0.50504649 0.11587943 1.0119603 84
-0.52204406 0.12428191 1.0115763 8
-0.51415491 0.1309294 1.0148376 8
-0.50653303 0.12976459 1.0072306 8
0.35378307 0.12378527 1.0124127 84
0.50966316 0.12197336 1.0156808 84
0.51268917 0.12833419 1.0140287 84
-0.51750439 0.12944403 1.0163492 8
-0.50543779 0.13978545 1.0146544 8
0.33943668 0.13875541 1.0162809 84
0.34401807 0.13507847 1.0165594 84
0.51656091 0.13524997 1.013555 84
-0.50365132 0.14360484 1.0159199 8
-0.49770191 0.14751323 1.0125031 8
0.32583728 0.14796746 1.0136515 84
0.33268803 0.1435675 1.0143033 84
0.51987785 0.14160748 1.0110112 84
0.52644545 0.14856447 1.0190969 84
-0.5010106 0.15213342 1.0183427 8
-0.49452671 0.15588756 1.0147583 8
0.2167846 0.15863034 1.0112472 61
0.22502548 0.15914656 1.0138483 61
0.23402648 0.15893382 1.0151299 61
0.24538836 0.15735902 1.0138549 61
0.25505197 0.15684696 1.0140119 61
0.26481181 0.15740401 1.0154507 61
0.27420443 0.15567181 1.0115761 61
0.28205833 0.1554376 1.0103385 61
0.31741959 0.15262027 1.015112 84
0.32429588 0.15075533 1.0189933 84
0.52688175 0.15273212 1.0110325 84
-0.49147889 0.16076672 1.0155709 8
-0.48525542 0.16511846 1.0137116 8
0.0065377909 0.16984098 1.0095189 8
0.014782025 0.16964057 1.0097088 8
0.020282319 0.16955324 1.0097907 8
0.036760341 0.1691054 1.0102525 8
0.045048803 0.1693213 1.0108024 8
0.057388052 0.16880977 1.0111574 8
0.066721939 0.16900603 1.0118866 8
0.07540796 0.16825053 1.0118066 8
0.084487133 0.16805655 1.0123209 8
0.094689377 0.1668313 1.012013 8
0.10419839 0.16712537 1.0127367 8
0.1156503 0.16614023 1.0118232 8
0.12486368 0.16593482 1.0108703 8
0.135216 0.16846585 1.0121453 8
0.14397734 0.16802715 1.0109395 61
0.15507826 0.16899008 1.0119858 61
0.16594672 0.16777527 1.0121186 61
0.17483453 0.16696069 1.0133659 61
0.18495616 0.16583771 1.0154319 61
0.19427443 0.16200233 1.0118477 61
0.20460731 0.16075814 1.0128921 61
0.2149784 0.16138881 1.0164038 61
0.53652179 0.1645157 1.0174303 84
-0.4850072 0.16994469 1.0180552 8
-0.4740873 0.1737839 1.015312 8
-0.46510863 0.1764866 1.0129589 8
-0.45708954 0.17950535 1.0122516 8
-0.20198236 0.18054064 1.0095916 8
-0.19926789 0.18036009 1.0097072 8
-0.13769913 0.17841449 1.0092775 8
-0.11999805 0.17815275 1.0106087 8
-0.11441749 0.17742367 1.0099974 8
-0.10516208 0.17897871 1.0131618 8
-0.095386893 0.1779221 1.011927 8
-0.085930742 0.17851537 1.0140587 8
-0.07429114 0.17737179 1.0137669 8
-0.065841898 0.17707738 1.0147713 8
-0.055543236 0.17581046 1.0138781 8
-0.044534355 0.17531127 1.0142307 8
-0.034557015 0.17514288 1.0144507 8
-0.026310621 0.17539091 1.014751 8
-0.014170639 0.17494947 1.0143234 8
-0.0045029209 0.17430072 1.0138702 8
0.0056418465 0.17524201 1.0151023 8
0.01483012 0.17540202 1.0154084 8
0.024501419 0.17533226 1.015447 8
0.035578027 0.17443563 1.014877 8
0.045262702 0.17439169 1.0152998 8
0.054620374 0.17554267 1.0169071 8
0.064767025 0.17401285 1.0161976 8
0.074706495 0.17402796 1.0169755 8
0.085931055 0.17381305 1.0177096 8
0.094569467 0.17165908 1.0163951 8
0.10522912 0.1719842 1.0171387 8
0.11449666 0.171909 1.0171257 8
0.12419702 0.17148186 1.0162134 8
0.13521665 0.17277423 1.0166626 61
0.14472356 0.17350599 1.0169885 61
0.15361111 0.17354983 1.0176718 61
0.16378292 0.17127588 1.0166957 61
0.17260823 0.17025316 1.0180802 61
0.54200917 0.17276035 1.0150201 84
-0.46215665 0.18047947 1.0172039 8
-0.45440364 0.18373564 1.0179763 8
-0.44825134 0.18295419 1.0134491 8
-0.43426973 0.1868757 1.0155473 8
-0.42446128 0.18843709 1.0158156 8
-0.41494375 0.18856432 1.012812 8
-0.25394917 0.18853638 1.0104026 8
-0.24578942 0.18939359 1.0161109 8
-0.23510399 0.18661416 1.0137309 8
-0.22540177 0.18671404 1.0169185 8
-0.21471359 0.185045 1.0157787 8
-0.2044314 0.18372075 1.0151592 8
-0.19560894 0.18317173 1.0156519 8
-0.18466006 0.18258788 1.0153691 8
-0.17541625 0.18183194 1.0143268 8
-0.16483577 0.18141302 1.0132449 8
-0.15573531 0.18193623 1.014204 8
-0.1453782 0.18249141 1.0156485 8
-0.13560046 0.18142295 1.0144405 8
-0.12464574 0.1812779 1.0151128 8
-0.11512524 0.18135272 1.016291 8
-0.109868 0.18242334 1.0185941 8
-0.4038862 0.19198272 1.0161265 8
-0.39345288 0.19264178 1.0144725 8
-0.38320702 0.19297315 1.0133369 8
-0.37382397 0.19354431 1.0136067 8
-0.36604777 0.19544664 1.0179657 8
-0.35577169 0.19509543 1.016129 8
-0.34816337 0.1934727 1.0103559 8
-0.33357349 0.19724171 1.0159054 8
-0.32784161 0.19642484 1.0108297 8
-0.31812343 0.19912793 1.0152059 52
-0.30403799 0.19939718 1.0136665 52
-0.28371459 0.19707398 1.0144142 52
-0.27358034 0.19427058 1.0124465 8
-0.26448905 0.19264826 1.0142589 8
0.56246465 0.19225705 1.0149804 113
-0.31495747 0.20033544 1.0179585 52
-0.29983407 0.20033702 1.0179721 52
0.49224293 -0.13960706 1.0219218 47
0.48490775 -0.12201902 1.0230104 76
0.4787066 -0.11261868 1.0249946 47
0.48172551 -0.11701838 1.0233387 76
0.46774146 -0.10229928 1.0217566 47
0.4740454 -0.10789021 1.0233444 47
0.1981753 -0.089944668 1.0273533 8
0.20437083 -0.090094745 1.0237945 8
0.21514183 -0.092155501 1.022042 8
0.22463849 -0.094105221 1.0222616 8
0.237482 -0.096648335 1.0237176 8
0.24413702 -0.098547451 1.0281451 8
0.25651106 -0.099705793 1.0277933 8
0.26117408 -0.099440962 1.0242378 8
0.28160134 -0.099618785 1.0226226 8
0.29718846 -0.098729044 1.0244404 8
0.31686425 -0.093184501 1.0254477 8
0.45044914 -0.090028457 1.0279033 47
0.4561159 -0.093536183 1.025842 47
0.46276462 -0.098721109 1.0252303 47
-0.35301477 -0.082496524 1.027794 8
-0.34634253 -0.082235284 1.0244588 8
-0.33461398 -0.082587354 1.0226414 8
-0.32608414 -0.083568074 1.0254029 8
-0.31578699 -0.081959009 1.0243288 8
-0.30592433 -0.081846453 1.0281547 8
0.12777267 -0.081818894 1.0284976 8
0.13474196 -0.081628039 1.0272403 8
0.14517076 -0.082574748 1.0273743 8
0.15483019 -0.082244523 1.0265727 8
0.16457027 -0.083218284 1.0266426 8
0.17529194 -0.083232902 1.0242248 8
0.1856166 -0.085756876 1.024341 8
0.19323993 -0.087235615 1.0235237 8
0.32541868 -0.088005431 1.0232863 8
0.33121005 -0.08446312 1.0230052 8
0.43753281 -0.081488475 1.0257784 47
0.44453454 -0.085074596 1.02334 47
0.45224604 -0.0899157 1.0216407 47
0.55182886 -0.081791371 1.0241613 95
-0.45172715 -0.070331559 1.0288726 8
-0.44506916 -0.071453996 1.0283335 8
-0.43391618 -0.071423076 1.0239762 8
-0.4250699 -0.073203206 1.0246273 8
-0.41422001 -0.074030064 1.024165 8
-0.40330535 -0.075314969 1.0255151 8
-0.39468139 -0.075299308 1.0250778 8
-0.38566917 -0.075063117 1.0236663 8
-0.37598199 -0.076165803 1.0235794 8
-0.36375895 -0.077199042 1.0208385 8
-0.35741815 -0.078519143 1.0211186 8
-0.30411154 -0.078313574 1.0219774 8
-0.29494646 -0.075981475 1.0235884 8
-0.28464139 -0.072262459 1.0241975 8
-0.27776188 -0.070756868 1.0264387 8
-0.15441938 -0.070843548 1.0285591 8
-0.14456531 -0.070702918 1.0280613 8
-0.13451537 -0.06961225 1.0265887 8
-0.12499718 -0.070428208 1.0279273 8
-0.10283579 -0.070489436 1.0296301 8
-0.099973366 -0.069873199 1.0290275 8
0.086667918 -0.0697826 1.0273012 8
0.095003717 -0.070681572 1.0259391 8
0.10547863 -0.073305361 1.0255154 8
0.11444515 -0.074402317 1.0239635 8
0.12382428 -0.076400585 1.0236588 8
0.13557085 -0.077302314 1.0228763 8
0.14361745 -0.078453422 1.0229075 8
0.15542839 -0.078494683 1.0214361 8
0.1651541 -0.080011509 1.0216846 8
0.17043991 -0.07995563 1.0203154 8
0.34562743 -0.076863229 1.0247827 8
0.35664955 -0.072362266 1.0243573 8
0.36516911 -0.070795067 1.0253011 47
0.37590122 -0.070933744 1.0282426 47
0.38633811 -0.070153594 1.0267767 47
0.39539665 -0.069814272 1.0250242 47
0.40507352 -0.070539467 1.0247958 47
0.41473266 -0.072128534 1.0247184 47
0.42430946 -0.074841961 1.0247488 47
0.43357345 -0.078450888 1.0226429 47
0.55503935 -0.076552175 1.0237923 95
-0.47432488 -0.062941641 1.0279043 8
-0.46576792 -0.064599998 1.0261012 8
-0.45538682 -0.066033907 1.0239041 8
-0.44689977 -0.06758754 1.0228879 8
-0.43947861 -0.068594448 1.0213642 8
-0.2746563 -0.067201711 1.0231047 8
-0.26507023 -0.065116309 1.0250266 8
-0.25434431 -0.064233691 1.0277835 8
-0.24548692 -0.063074313 1.0277027 8
-0.22412831 -0.062788576 1.0255723 8
-0.21485439 -0.063240059 1.0245781 8
-0.20413387 -0.066024877 1.0267307 8
-0.19494328 -0.064897276 1.02347 8
-0.18503317 -0.066459626 1.0248286 8
-0.17491685 -0.067183785 1.0252693 8
-0.16500774 -0.067049913 1.0243266 8
-0.15451138 -0.066038474 1.0221751 8
-0.14522374 -0.066570505 1.0224771 8
-0.1344569 -0.066298269 1.0221372 8
-0.12511837 -0.06623318 1.0220571 8
-0.11491902 -0.066767484 1.0232502 8
-0.10450368 -0.066703878 1.0239036 8
-0.095866367 -0.065731242 1.0235081 8
-0.084196799 -0.065291561 1.0244983 8
-0.075317346 -0.065410942 1.0260148 8
-0.064292103 -0.064394429 1.0259993 8
-0.055651139 -0.063877404 1.0259906 8
-0.045157321 -0.063448004 1.0257722 8
-0.035375252 -0.063424386 1.0262325 8
-0.024757324 -0.06395667 1.0270172 8
-0.014364693 -0.062834322 1.025485 8
-0.0045718355 -0.063900359 1.0269893 8
0.0052357344 -0.063199461 1.0258397 8
0.015037091 -0.063661635 1.0261441 8
0.023451002 -0.064669535 1.0268967 8
0.035178076 -0.06406828 1.0256983 8
0.044392914 -0.063712552 1.0251456 8
0.056188766 -0.064444713 1.0257061 8
0.065023087 -0.064684294 1.0250791 8
0.075454608 -0.065569155 1.024561 8
0.083976537 -0.06529288 1.0228957 8
0.10532679 -0.068995304 1.0211132 8
0.11750338 -0.069308877 1.0185894 8
0.36918831 -0.068115793 1.0207828 47
0.37629887 -0.067977324 1.0216217 47
0.55868351 -0.068085611 1.0196286 94
0.56462806 -0.064149335 1.0226182 94
-0.49335173 -0.051665891 1.0254697 8
-0.48377493 -0.056527805 1.0250552 8
-0.47543287 -0.058144879 1.0224907 8
-0.46585068 -0.060334031 1.0206885 8
-0.26223972 -0.060764097 1.0201321 8
-0.25499213 -0.059670415 1.0208256 8
-0.24412486 -0.059475314 1.022318 8
-0.23617449 -0.059914585 1.0228803 8
-0.22838148 -0.060107432 1.0221797 8
-0.074100353 -0.061088778 1.0202285 8
-0.064394876 -0.06029379 1.0205319 8
-0.054675292 -0.059755977 1.0206381 8
-0.046337176 -0.059514124 1.0208524 8
-0.034637097 -0.059268557 1.0210735 8
-0.025442693 -0.058963262 1.0208565 8
-0.015142888 -0.059331782 1.0213006 8
-0.004553996 -0.059508622 1.0216427 8
0.00102577 -0.059891582 1.0219307 8
0.013563229 -0.059297901 1.0208986 8
0.026133226 -0.060575854 1.0219961 8
0.031676777 -0.059728369 1.0210223 8
0.042791527 -0.059260506 1.0204148 8
0.056727573 -0.059989545 1.0207614 8
0.065034106 -0.060336169 1.0204122 8
0.071948871 -0.060994457 1.0202754 8
0.56810123 -0.059678737 1.0219041 94
0.57429808 -0.055886533 1.0246371 94
0.58060515 -0.052218005 1.0271971 94
0.6697613 -0.052145153 1.0288655 105
0.67568457 -0.052106362 1.0286087 105
-0.51308906 -0.0408017 1.0284302 8
-0.50472349 -0.044951249 1.0259091 8
-0.49709228 -0.04539372 1.020793 8
0.5760588 -0.048895575 1.0192887 94
0.58542818 -0.04426403 1.0238006 94
0.59429747 -0.042179231 1.0267473 94
0.60458142 -0.041304015 1.0290948 94
0.6161738 -0.040793601 1.0295292 103
0.62992227 -0.040199772 1.0286869 103
0.63586795 -0.040488828 1.0281587 103
0.64554858 -0.042863175 1.0274093 103
0.65510017 -0.044505026 1.0254447 103
0.66570842 -0.043976568 1.0223696 105
0.67256141 -0.047280125 1.023663 105
0.6833877 -0.045753576 1.0225093 105
-0.52138728 -0.032148726 1.0286881 8
-0.51462901 -0.035037402 1.024412 8
-0.50610888 -0.03786242 1.0194582 8
0.58897179 -0.036185279 1.0200747 77
0.59527558 -0.034528486 1.0222392 77
0.60402274 -0.034683883 1.0249206 77
0.61475241 -0.034437474 1.0261463 103
0.62596184 -0.03506754 1.0265408 103
0.63600951 -0.034997519 1.0255688 103
0.64553237 -0.035106841 1.0236889 103
0.65476382 -0.035282318 1.0208912 103
0.66435367 -0.035464536 1.018934 105
0.67079037 -0.037128087 1.0179524 105
0.69448483 -0.037408262 1.0212539 111
-0.52265179 -0.022743139 1.0248964 8
-0.51763946 -0.027654087 1.0218517 8
0.59781772 -0.026378289 1.0200255 77
0.60521841 -0.024858179 1.0216905 77
0.61526549 -0.02516214 1.0235513 103
0.62508607 -0.025216857 1.0240455 103
0.63422477 -0.025232237 1.0237298 103
0.6442489 -0.025209438 1.0219274 77
0.65473992 -0.024928708 1.0194962 77
0.66459638 -0.024092872 1.0180569 77
0.67343664 -0.020279299 1.0180727 111
0.68491405 -0.022454189 1.0183398 111
0.69213253 -0.024041578 1.0209261 111
-0.52509147 -0.014510234 1.0260166 8
0.59902132 -0.012413 1.0190194 77
0.60579884 -0.014750809 1.0213863 77
0.61571056 -0.015185467 1.0234617 77
0.62496334 -0.015176642 1.0243081 77
0.6347636 -0.014775097 1.0242503 77
0.64453435 -0.015346798 1.0236212 77
0.65469444 -0.014614646 1.0223353 77
0.66447228 -0.015101105 1.0205808 77
0.67547107 -0.014844261 1.0202262 110
0.68351102 -0.014325643 1.0220393 111
0.6902805 -0.018031863 1.0227145 111
-0.52367884 -0.0037938838 1.0250973 8
0.59882408 -0.0053005745 1.0191987 77
0.60552955 -0.0050543025 1.0221773 77
0.61507177 -0.0060061929 1.0250889 77
0.62470406 -0.0055901944 1.0271873 77
0.63578773 -0.0053385701 1.0278057 77
0.64474684 -0.007572819 1.0270782 77
0.65411574 -0.007211036 1.0268546 77
0.6651727 -0.0083991149 1.0255917 110
0.67482132 -0.0074802241 1.0261872 110
0.68205976 -0.0084263645 1.0272381 115
-0.52454913 0.0040146476 1.0270619 8
-0.52226442 0.0076140026 1.0237951 8
0.59762734 0.0068489513 1.0210418 77
0.60560006 0.0052624783 1.0250548 77
0.6135239 0.0034993633 1.0280634 77
-0.52422392 0.014728935 1.0262952 8
-0.52084702 0.015830364 1.0214075 8
0.59650224 0.015149296 1.0226285 77
0.60314065 0.014878363 1.0276999 77
-0.52590036 0.024118846 1.0253068 8
-0.51993966 0.02106395 1.0180631 8
0.59031826 0.023931069 1.0194867 77
0.59309107 0.02576731 1.0235139 77
-0.5426538 0.037059404 1.025562 38
0.58754635 0.037451681 1.0225924 77
-0.69476491 0.048298202 1.027261 2
-0.68677616 0.046894491 1.0280507 2
-0.66149324 0.048202023 1.0287267 32
-0.65871549 0.04843048 1.0198058 32
-0.61519855 0.049444363 1.0221 8
-0.60293186 0.048638079 1.0209516 8
-0.5763762 0.047694169 1.0197464 8
-0.56935376 0.045726094 1.0228834 8
0.58689094 0.045611545 1.0281392 77
0.58931488 0.040132813 1.0270976 77
-0.7134558 0.056986149 1.0251764 3
-0.70597154 0.053949039 1.0221922 3
-0.69831687 0.050647162 1.0219135 3
-0.65167564 0.048890218 1.0222361 32
-0.64738894 0.049264569 1.0203671 32
0.57618159 0.054392949 1.0208997 77
-0.72208303 0.064300299 1.0264646 3
-0.71935421 0.063255347 1.0246067 3
0.56792337 0.062887475 1.0205919 77
-0.72351414 0.073758103 1.024056 4
-0.71952158 0.071763448 1.0197759 3
-0.71888989 0.086357281 1.0197562 3
0.4240267 0.090732843 1.0196779 84
0.44488749 0.088173635 1.0201969 84
-0.72313368 0.092549853 1.0266607 4
-0.71790534 0.097567596 1.025515 4
0.40569356 0.097527288 1.023057 84
0.41400528 0.094743349 1.0230578 84
0.42425486 0.092263095 1.0237739 84
0.43434179 0.090704747 1.024894 84
0.47254527 0.090927891 1.0264132 84
0.48599964 0.095049746 1.0254313 84
0.49199077 0.098826207 1.0222014 84
-0.70223141 0.10464828 1.0218122 6
-0.69303173 0.10972602 1.0287181 6
-0.68297368 0.10874689 1.022766 7
-0.67589921 0.10871875 1.0231974 7
-0.66437292 0.10829319 1.0281445 28
-0.63569957 0.10598671 1.0229584 23
-0.62557447 0.10608537 1.023325 23
-0.61865139 0.10574523 1.0216923 23
-0.60332602 0.1080149 1.0259581 33
-0.59812915 0.10804608 1.021805 33
0.3849459 0.10726924 1.0234864 84
0.39501995 0.10257592 1.0244033 84
0.40158138 0.10126878 1.0272419 84
0.49758771 0.10356647 1.02393 84
0.50231075 0.10874758 1.0289738 84
-0.58276796 0.11199755 1.0212594 33
0.37457716 0.11461815 1.0250821 84
0.50704986 0.11546121 1.0248247 84
-0.51740438 0.13406888 1.0229582 8
0.35603908 0.12795809 1.0223091 84
0.36271632 0.1221249 1.0224855 84
0.51045084 0.12008782 1.0252328 84
0.51548743 0.12920433 1.0239606 84
-0.52030146 0.13302465 1.0255245 8
-0.51054335 0.13725898 1.0176075 8
0.35012028 0.132093 1.0207174 84
0.51797104 0.13503972 1.0201372 84
0.52153432 0.13831173 1.0260779 84
-0.51300502 0.14968352 1.0288912 8
-0.51050472 0.14134862 1.0208509 8
0.34025228 0.14322935 1.0260903 84
0.52645904 0.14539114 1.0270666 84
-0.51019907 0.15477848 1.0286465 8
-0.50409603 0.15606965 1.0231313 8
0.27560648 0.15996891 1.0218596 61
0.31365019 0.15581159 1.0212739 84
0.53329748 0.15708233 1.0232737 84
-0.50989187 0.15847485 1.0303712 8
-0.50304002 0.16351174 1.0265561 8
-0.49568906 0.1655201 1.0219756 8
0.17895733 0.16969576 1.0200689 61
0.18555363 0.17063361 1.0258313 61
0.19468294 0.16775239 1.0245084 61
0.20564534 0.16576433 1.0245205 61
0.21422584 0.16555168 1.0262177 61
0.22584184 0.16278629 1.0215325 61
0.23438075 0.16395332 1.02551 61
0.24418303 0.16247801 1.0236219 61
0.2546995 0.16108942 1.0220953 61
0.26474121 0.1612059 1.0235953 61
0.27161714 0.16273111 1.0282602 61
