# .PCD v0.7 - Point Cloud Data file format
VERSION 0.7
FIELDS x y z
SIZE 4 4 4
TYPE F F F
COUNT 1 1 1
WIDTH 1536
HEIGHT 1
VIEWPOINT 0 0 0 1 0 0 0
POINTS 1536
DATA ascii
0.34483641 -0.064862579 1.0031999
0.35474101 -0.062258203 1.0052
0.36569551 -0.061311174 1.0077499
0.37555099 -0.061359331 1.0086666
0.38444099 -0.061251551 1.007
0.39504439 -0.061707359 1.0056
0.40610683 -0.061998297 1.0045
0.41458058 -0.064178534 1.0030833
0.42567801 -0.067001246 1.0046667
0.43270066 -0.069083236 1.002
0.53638238 -0.067112558 1.0024
0.54439658 -0.06538552 1.0048
0.55120897 -0.061436199 1.007
-0.45394728 -0.051004626 1.00675
-0.4442533 -0.054970246 1.0062858
-0.43568164 -0.056010999 1.0048751
-0.42600015 -0.056451146 1.0026666
-0.41748124 -0.057499826 1.00125
-0.40387154 -0.057300333 1.0016667
-0.39523217 -0.05684093 1.0015
-0.38556877 -0.056816854 1.0009999
-0.37687939 -0.057127722 1.0016
-0.29105833 -0.0574435 1.0023333
-0.28439701 -0.055976905 1.0022498
-0.27612409 -0.054258704 1.0040001
-0.26578951 -0.050469249 1.00725
-0.25504199 -0.050508797 1.00775
-0.248549 -0.050580598 1.0089999
-0.231736 -0.050502401 1.007
-0.22557671 -0.051700313 1.0072857
-0.21462014 -0.052092172 1.007
-0.20495728 -0.05163357 1.0054284
-0.19483575 -0.051891115 1.006375
-0.18452966 -0.051945481 1.0071666
-0.17506814 -0.05169462 1.0058571
-0.16404951 -0.051512863 1.0071666
-0.1552951 -0.053322673 1.0065556
-0.145144 -0.052772075 1.0063
-0.135243 -0.052429989 1.0065557
-0.12510033 -0.051936269 1.0056667
-0.11472239 -0.051130701 1.0058
-0.1045325 -0.051934592 1.00525
-0.094868131 -0.051895011 1.0043334
-0.085633025 -0.052109826 1.0083749
-0.075383618 -0.051232524 1.0072
-0.066404656 -0.05075305 1.0085
-0.055390928 -0.050746102 1.00825
-0.048503201 -0.050736599 1.008
0.086310662 -0.050748799 1.0086666
0.096723817 -0.051827885 1.0084
0.10533841 -0.053660851 1.0067999
0.11457907 -0.05418206 1.0071429
0.12540916 -0.054381952 1.0051999
0.13472892 -0.054916635 1.0044615
0.14421675 -0.054783534 1.0029999
0.15460254 -0.056652412 1.0008888
0.16170201 -0.058407299 1
0.35749102 -0.0581339 1
0.36459532 -0.058186304 1.001
0.37498477 -0.058324501 1.0035
0.384951 -0.058187027 1.00125
0.40243801 -0.058165099 1.001
0.54651546 -0.058343701 1.0009999
0.55462581 -0.054666739 1.003
0.56192601 -0.050466001 1.006
-0.48157251 -0.04359385 1.0085
-0.47496751 -0.043076754 1.0071666
-0.4656015 -0.045182601 1.0059999
-0.45612368 -0.045445841 1.0022857
-0.4434185 -0.049980249 1
-0.43798199 -0.049978301 1
-0.2721065 -0.047403552 1.0005
-0.26424298 -0.046960764 1.0024
-0.25543517 -0.046398718 1.0018001
-0.24471061 -0.046975698 1.0021999
-0.23414043 -0.046371855 1.0022857
-0.22494934 -0.046127815 1.0009999
-0.21552962 -0.046151038 1.0012499
-0.20373966 -0.046606783 1.0009999
-0.19509034 -0.047508866 1.0006666
-0.18569176 -0.046180684 1.001125
-0.17341174 -0.046858124 1.0007501
-0.16605581 -0.04652622 1.0022
-0.15439133 -0.047556233 1.0006667
-0.1475755 -0.047555551 1.0005
-0.13411425 -0.047616929 1.0014999
-0.12588699 -0.046237484 1.001
-0.1157884 -0.046510257 1.0007999
-0.101421 -0.047645852 1.0015
-0.093617201 -0.0467031 1.0006667
-0.085174568 -0.044994861 1.0029167
-0.075246073 -0.046011213 1.002625
-0.065008432 -0.045333978 1.0034444
-0.055190343 -0.045084625 1.0045832
-0.044552244 -0.045286898 1.0034546
-0.03519129 -0.044832353 1.0049001
-0.025450636 -0.044907745 1.006
-0.014412351 -0.044757236 1.0046251
-0.0052957772 -0.045089062 1.0044
0.0043101301 -0.044916742 1.0067
0.014757678 -0.045211632 1.0072222
0.023970336 -0.04489702 1.0057273
0.03615018 -0.044876132 1.0059
0.044937123 -0.045145724 1.0058888
0.054151811 -0.044882208 1.0056365
0.065617695 -0.043834224 1.0074999
0.075101182 -0.045129169 1.0057778
0.084618807 -0.045080379 1.0048333
0.095541023 -0.045061007 1.0045834
0.10457214 -0.045769613 1.0031428
0.11366574 -0.045937035 1.0016249
0.12536272 -0.046044152 1.0009999
0.13462482 -0.046206255 1.0005
0.142709 -0.047536802 1
0.55912501 -0.047491901 1.001
0.56418163 -0.044961732 1.005
0.67783999 -0.040065199 1.0089999
-0.49307349 -0.033331074 1.008
-0.4847551 -0.034996688 1.0048001
-0.47555804 -0.036874488 1.0023749
-0.46552065 -0.039176334 1.0006666
-0.0549835 -0.039448272 1.0007499
-0.042665601 -0.039422799 1
-0.031782001 -0.039464999 1.001
-0.023632087 -0.037495524 1.003
-0.0163149 -0.037678249 1.0018333
-0.0052377582 -0.037896756 1.0007142
0.0037438017 -0.036759727 1.0015714
0.0146872 -0.03815572 1.0023333
0.024613136 -0.036997512 1.0013636
0.034259353 -0.038567916 1.0013334
0.044787601 -0.038155053 1.0024999
0.053817801 -0.037335582 1.0026
0.064628907 -0.036756791 1.0018182
0.073789306 -0.038514435 1.0003333
0.083786309 -0.038054749 1.0003333
0.097274899 -0.03876505 1.00125
0.102122 -0.039473299 1.002
0.56793767 -0.0367654 1.005
0.57265902 -0.0313011 1.005
0.68346 -0.033596367 1.0083333
-0.5031243 -0.023075232 1.0073333
-0.49491182 -0.0248932 1.0036
-0.48666701 -0.027443798 1.001
0.56979901 -0.0257017 1
0.57503861 -0.025293702 1.0051999
0.58064097 -0.025943 1.0089999
-0.51248252 -0.0155739 1.0079999
-0.50532061 -0.014490675 1.004125
-0.49807948 -0.0147659 1
0.57337672 -0.014839633 1.0013332
0.58004701 -0.0121952 1.008
-0.51368499 -0.0094284303 1.0089999
-0.50553435 -0.0056632017 1.0033637
-0.49857551 -0.0079929046 1.001
0.57745397 -0.0053174947 1.0035
0.58348 -0.00396709 1.0089999
-0.51039201 0.00152081 1.008
-0.503506 0.0051315599 1.0016667
0.57587123 0.0056015225 1.0007501
-0.504475 0.015149551 1.0045
0.57659763 0.015158534 1.002
-0.50768673 0.024730725 1.00675
0.57434154 0.024690025 1.00175
0.58063698 0.023504 1.0089999
-0.53275198 0.039843399 1.008
-0.52406532 0.034276735 1.0056667
-0.51461703 0.031526502 1.0053333
0.57608628 0.035761274 1.0059999
-0.56322598 0.0480862 1.007
-0.55478948 0.0464679 1.0020001
-0.54021198 0.042307399 1.001
0.56983799 0.042339101 1
0.57213247 0.046719298 1.0065
-0.69138497 0.059702098 1.005
-0.68474668 0.054222535 1.0073334
-0.67413706 0.053042267 1.0036666
-0.66394365 0.051199168 1.005
-0.65320772 0.051007468 1.0023334
-0.64559168 0.051971763 1.0043334
-0.63703847 0.053667501 1.0025001
-0.60525048 0.05078885 1.003
-0.58539802 0.0506109 1.001
-0.57346267 0.0507617 1.005
-0.56552303 0.050540902 1.001
0.55670637 0.055997301 1.0016667
0.56385958 0.054091759 1.0063999
-0.70193201 0.064188197 1.0089999
-0.69553101 0.065107204 1.002
0.54738802 0.064033702 1
0.551283 0.061446398 1.002
-0.70497346 0.077569246 1.0071666
0.54565668 0.075291805 1.0053333
-0.70524365 0.084959127 1.0066665
-0.69813299 0.081676498 1.001
0.403101 0.088451266 1.0026666
0.41518301 0.086529702 1.0039999
0.42445999 0.085933104 1.005
0.438591 0.083050102 1.003
0.44246101 0.083011448 1.0025001
0.45999399 0.0862137 1.008
0.46466675 0.085816748 1.00325
0.47738168 0.08862444 1.0040001
0.48096901 0.088282503 1
-0.70080602 0.096240297 1.0089999
-0.69439375 0.094352722 1.00425
-0.68606001 0.098111302 1.001
-0.663284 0.0978043 1.0009999
0.37649 0.0994666 1.0039999
0.38399941 0.09631522 1.0052
0.39471799 0.092792355 1.0055001
0.48739001 0.091437295 1.00475
0.49207699 0.09673585 1.003
-0.68372399 0.100933 1.002
-0.67557698 0.10095525 1.0035
-0.66144598 0.100904 1.005
-0.65426475 0.10086125 1.0055001
-0.64498752 0.10070451 1.005
-0.63797998 0.100253 1.001
-0.599482 0.102509 1
-0.581186 0.105385 1.003
-0.572649 0.108055 1.003
0.36699599 0.107637 1.0039999
0.37279001 0.103654 1.005
0.49673 0.103201 1.0040001
0.50051498 0.107971 1.006
-0.57209802 0.111211 1.007
-0.56468999 0.114118 1.0089999
-0.54552704 0.11701533 1.0033332
-0.53487551 0.118782 1.0035
0.35502675 0.11567025 1.0027499
0.36246651 0.1120045 1.0065
0.50402075 0.1145075 1.00325
-0.530783 0.122137 1.0089999
-0.52230346 0.12280799 1.0035
-0.50650704 0.12533049 1.0025001
-0.49622798 0.12468501 1.0013334
0.34528899 0.12535301 1.0039999
0.50701952 0.1229055 1.005
0.51210397 0.128268 1.0039999
-0.49524528 0.13598526 1.00625
0.33523536 0.13466434 1.0023333
0.51548535 0.13537167 1.0059999
-0.49375603 0.14385416 1.0055
-0.488368 0.146964 1.0020001
0.113993 0.14853799 1
0.25914299 0.14824501 1.001
0.26445797 0.14817834 1.0006667
0.31585899 0.148082 1.001
0.324296 0.142783 1.002
0.52082801 0.14477399 1.0044999
-0.49180001 0.15210199 1.0089999
-0.48404312 0.154909 1.005125
-0.47762102 0.157882 1.0025001
0.017349601 0.15953501 1
0.023727767 0.15878667 1.0009999
0.035930701 0.15760419 1.0016
0.044679832 0.15983467 1.002
0.054191001 0.15698624 1.00125
0.065321743 0.15587987 1.0017142
0.074595131 0.15469921 1.0007
0.083854876 0.15457201 1.0019091
0.095318832 0.15584885 1.0018572
0.10540471 0.15500584 1.0015714
0.11465245 0.15462163 1.0026364
0.12489592 0.15471019 1.0033636
0.13536556 0.15808257 1.001857
0.1441575 0.15967101 1.00225
0.152052 0.1593685 1.0005
0.16849799 0.1594775 1.0015
0.17519934 0.15756766 1.0009999
0.18491976 0.15682673 1.00225
0.19543874 0.15651675 1.0005
0.20556132 0.15698066 1.0036666
0.2150715 0.15423065 1.0036665
0.22562735 0.15248483 1.0043333
0.2343404 0.15398121 1.0059999
0.244819 0.152612 1.0044
0.25482833 0.15162833 1.0053334
0.26496178 0.151962 1.0077499
0.27461025 0.1512495 1.00325
0.28448436 0.15325201 1.0046667
0.2945725 0.15444799 1.00675
0.30345568 0.15410167 1.0046667
0.31107199 0.151108 1.003
0.52783471 0.15620367 1.0043334
-0.48026001 0.162854 1.008
-0.47459677 0.1652855 1.0062499
-0.46534434 0.16721934 1.0016667
-0.091559999 0.16758101 1
-0.064396732 0.16774201 1.0006666
-0.054208979 0.167633 1.0053333
-0.044687428 0.1671153 1.0037143
-0.035301115 0.16666386 1.0032858
-0.025801402 0.16786639 1.0044
-0.015081412 0.166197 1.0053749
-0.0058340123 0.1662755 1.0045999
0.0046560825 0.16490367 1.0051111
0.014700024 0.16547413 1.005125
0.025043992 0.16494069 1.0062307
0.034848716 0.16447565 1.005357
0.044846002 0.16454351 1.0058333
0.05403674 0.16394162 1.0057857
0.06488616 0.16273101 1.0066
0.074920639 0.16194181 1.0052
0.0845301 0.16172048 1.0056249
0.095577009 0.16187951 1.00675
0.1056672 0.16152859 1.0063999
0.1139894 0.16112101 1.0073999
0.1257695 0.1605605 1.0074999
0.1339675 0.16327076 1.0074999
0.1452361 0.16522977 1.0066667
0.15477543 0.16388157 1.0044286
0.16356614 0.16486786 1.0058571
0.17495951 0.16178301 1.0074999
0.18473268 0.16057001 1.0086666
0.192991 0.160596 1.0089999
0.53459364 0.165701 1.0063334
-0.46598801 0.170838 1.007
-0.45574066 0.17586933 1.0046667
-0.44509402 0.17831701 1.0033332
-0.436782 0.1777035 1
-0.23248699 0.177982 1
-0.22595499 0.17818376 1.0009999
-0.2151805 0.17826726 1.00125
-0.20481436 0.17734949 1.0035
-0.19465999 0.17614342 1.0041428
-0.18624301 0.17675939 1.0043999
-0.17558444 0.17499128 1.0038571
-0.16422124 0.176305 1.0045
-0.15443161 0.17495361 1.0028
-0.14515686 0.17500825 1.0045
-0.13407239 0.17489161 1.0051999
-0.12569258 0.17515643 1.0061429
-0.11554671 0.17225571 1.0027143
-0.10437626 0.17397074 1.0057501
-0.094630234 0.17230316 1.0038333
-0.085100777 0.17237449 1.0041249
-0.076449901 0.17191567 1.0040001
-0.066051096 0.17123425 1.00525
0.54390627 0.17700732 1.0076666
-0.442099 0.182045 1.0089999
-0.43587232 0.181729 1.0073333
-0.424734 0.18177466 1.0026666
-0.41528967 0.18380934 1.0040001
-0.40545166 0.18701166 1.0066667
-0.39488366 0.18723267 1.0029999
-0.38453999 0.18884735 1.002
-0.3721315 0.1887535 1.0015
-0.36581799 0.18970001 1.0065
-0.35540232 0.189237 1.0039999
-0.344785 0.1886365 1.0007501
-0.337767 0.18850499 1
-0.271613 0.18867449 1
-0.263506 0.18721001 1.0016667
-0.25492632 0.18483867 1.0033333
-0.24439836 0.18318914 1.004625
-0.23505175 0.181633 1.00525
-0.22491224 0.1822595 1.0085
-0.21533233 0.18226333 1.0083333
-0.34216648 0.1929315 1.0089999
-0.3358795 0.1924625 1.0065
-0.326893 0.19336301 1.0039999
-0.319166 0.19415 1.001
-0.29252133 0.19447768 1.0023333
-0.28517199 0.194116 1.005
-0.2789405 0.19270301 1.007
-0.26671699 0.190017 1.007
0.49164501 -0.14731 1.016
0.48832199 -0.136127 1.015
0.48406768 -0.12746935 1.012
0.47873151 -0.1127345 1.0155001
0.48173499 -0.1179695 1.013
0.47368801 -0.10564633 1.0136666
0.23413976 -0.092959069 1.015
0.2447525 -0.094860546 1.0135
0.25361499 -0.09457276 1.0106667
0.26529801 -0.097578667 1.0136667
0.27378702 -0.097655565 1.0146667
0.28708935 -0.094747163 1.0133333
0.29879901 -0.0977282 1.016
0.304683 -0.096923627 1.0173334
0.31007099 -0.092285797 1.017
0.456947 -0.092134751 1.0165
0.46344125 -0.096585825 1.0124999
-0.33339599 -0.081375301 1.0190001
-0.322411 -0.081393003 1.0190001
0.17855699 -0.081677601 1.0190001
0.1857018 -0.081959799 1.0158
0.19516875 -0.083304539 1.013875
0.20440745 -0.086371377 1.0142858
0.21441451 -0.08933685 1.0125
0.22403334 -0.089329995 1.0126667
0.31432232 -0.089165427 1.013
0.3235575 -0.08494705 1.0120001
0.332344 -0.0812966 1.018
0.44749743 -0.082152762 1.0158
0.45241967 -0.087466098 1.0156666
-0.42377767 -0.070183963 1.018
-0.4139185 -0.071531296 1.0175
-0.40449235 -0.072028697 1.018
-0.39623436 -0.070191838 1.018
-0.38386601 -0.070199698 1.018
-0.37506676 -0.070793301 1.0165
-0.36543173 -0.075475603 1.0145
-0.35464001 -0.076062001 1.013
-0.34557271 -0.076977946 1.0132858
-0.333837 -0.078068435 1.012
-0.32498783 -0.077337384 1.0141667
-0.31555712 -0.076929368 1.0146251
-0.30498511 -0.074597031 1.0149999
-0.29390067 -0.0701297 1.0153333
0.12634571 -0.072620399 1.0185715
0.13490641 -0.07275001 1.0172
0.14541362 -0.072910227 1.01675
0.15469369 -0.072671436 1.0165001
0.16521376 -0.074359469 1.013375
0.17528224 -0.076458968 1.0140001
0.18293865 -0.078405201 1.0126667
0.3353065 -0.076887153 1.0145
0.34276763 -0.073800534 1.0163332
0.35087401 -0.070092998 1.016
0.41437101 -0.070115998 1.017
0.42697349 -0.072906598 1.0175
0.43531772 -0.075046666 1.0144285
0.4442215 -0.078061029 1.01275
0.54600799 -0.075635001 1.01425
0.55223 -0.070125401 1.0140001
-0.45256901 -0.061885349 1.0175
-0.4435676 -0.062771499 1.0139999
-0.43531355 -0.064456455 1.0145714
-0.42486501 -0.065472744 1.0121429
-0.414525 -0.068419203 1.0122501
-0.40445575 -0.068705879 1.0124
-0.395758 -0.067118049 1.01325
-0.38621199 -0.067129098 1.0133333
-0.37595674 -0.06701462 1.0115
-0.369679 -0.0698651 1.013
-0.300825 -0.069816902 1.011
-0.29423326 -0.067821652 1.01175
-0.28412884 -0.066859461 1.0156
-0.276124 -0.063273363 1.0153749
-0.26874101 -0.062096953 1.0185001
-0.20409767 -0.062211365 1.0186667
-0.175133 -0.062260751 1.0187501
-0.16522901 -0.062188167 1.0173334
-0.15679133 -0.062138665 1.0163333
-0.14454 -0.062226623 1.0174999
-0.1348605 -0.062932827 1.0175
-0.12523974 -0.062281176 1.018
-0.115548 -0.0622922 1.018
-0.1060434 -0.062808581 1.0172
-0.094649248 -0.062236696 1.01675
-0.087918103 -0.062380701 1.0190001
0.088761136 -0.064538464 1.018
0.095227636 -0.064962596 1.016
0.1049194 -0.064405933 1.0161
0.11421563 -0.06458202 1.0157499
0.12422842 -0.06491556 1.0157501
0.13420686 -0.065852255 1.0121429
0.14584225 -0.067432329 1.0125
0.155387 -0.067385003 1.012
0.34642372 -0.068838701 1.011
0.356125 -0.067288563 1.0153333
0.36479184 -0.065447949 1.0153333
0.37616399 -0.06443283 1.0139999
0.3856079 -0.066111766 1.0157143
0.39434502 -0.06586393 1.015
0.40396413 -0.065962613 1.0135715
0.41498068 -0.068994001 1.0139999
0.42273799 -0.069678433 1.0106667
0.55537105 -0.063120648 1.0120001
-0.48504171 -0.050936267 1.0186667
-0.47404864 -0.052172501 1.0159999
-0.46492714 -0.053455584 1.0142499
-0.45567816 -0.056150015 1.0134287
-0.44692647 -0.0587488 1.0109999
-0.273081 -0.057141554 1.0124999
-0.26580173 -0.056357075 1.0146
-0.25694239 -0.054140002 1.0142
-0.24482401 -0.053595163 1.0139
-0.23519728 -0.053589799 1.0135714
-0.22354452 -0.056910187 1.0151666
-0.21501628 -0.057602253 1.0144285
-0.20469552 -0.057831451 1.01475
-0.19499531 -0.057822283 1.0143334
-0.18553245 -0.057377968 1.0143332
-0.17473744 -0.057971347 1.0130001
-0.16578557 -0.056620937 1.0113333
-0.15395901 -0.058582723 1.0122
-0.14593026 -0.05848705 1.01275
-0.135038 -0.058014713 1.0128572
-0.12418466 -0.057385068 1.0131111
-0.11548512 -0.05689254 1.0143751
-0.10524476 -0.057807475 1.0121251
-0.094774112 -0.057989541 1.0117143
-0.08549954 -0.057726689 1.0138571
-0.075066961 -0.055875249 1.014125
-0.064825237 -0.05569623 1.0148889
-0.05568609 -0.055166576 1.013625
-0.043953169 -0.05450961 1.0140834
-0.035354443 -0.053023901 1.0140001
-0.025302775 -0.052496172 1.01525
-0.01386318 -0.053699363 1.0165454
-0.0045213401 -0.053527817 1.015
0.0054505239 -0.054972116 1.0148
0.01514076 -0.054397583 1.0144001
0.024243446 -0.05429028 1.0148462
0.035898112 -0.054938026 1.0142666
0.045616064 -0.054902233 1.0155455
0.054730412 -0.054307405 1.0153846
0.064688675 -0.053830814 1.0145556
0.074780762 -0.054630537 1.0147856
0.085072644 -0.056137506 1.0141538
0.094207555 -0.056451678 1.012375
0.1025334 -0.05805416 1.0116
0.118097 -0.059076201 1.0105
0.559614 -0.059007902 1.012
0.563869 -0.05489105 1.0120001
0.57093501 -0.051026601 1.017
-0.49239731 -0.043409932 1.0146667
-0.48587719 -0.046067063 1.0126667
-0.47609225 -0.047145203 1.0115001
-0.021040101 -0.048089799 1.01
-0.016905051 -0.048090503 1.01
0.0092854146 -0.046713352 1.01
0.028581901 -0.048088301 1.01
0.0313541 -0.046733599 1.0105
0.058892999 -0.048077598 1.01
0.065810345 -0.048097976 1.0105
0.57398731 -0.043600734 1.0156667
0.67399573 -0.042814512 1.016
0.68391705 -0.041248199 1.015
0.69313902 -0.040472601 1.018
-0.50486827 -0.032194827 1.0150001
-0.49651802 -0.036922365 1.0126666
-0.489205 -0.039556298 1.01
0.57665461 -0.03596472 1.013
0.58491623 -0.033916079 1.0174
0.66922998 -0.031995099 1.0190001
0.67515045 -0.034884475 1.0147858
0.68430299 -0.034116779 1.0132
0.69242603 -0.034832601 1.017
-0.52108401 -0.020563301 1.018
-0.51385933 -0.023715431 1.0148335
-0.50742048 -0.025235726 1.01175
0.58516359 -0.024501029 1.0140001
0.59358758 -0.023823587 1.0185715
0.60029501 -0.020652501 1.018
0.66603082 -0.027764698 1.018
0.67416829 -0.025622224 1.015
0.68564451 -0.028454199 1.0150001
0.69238198 -0.025031149 1.017
-0.51886266 -0.0149752 1.0136667
0.58477116 -0.015570479 1.0132
0.59412092 -0.015444301 1.018
0.60087895 -0.016506899 1.0190001
0.68110502 -0.0179605 1.0140001
-0.51731199 -0.0053520524 1.01475
0.58648419 -0.0045293961 1.0122
0.59308439 -0.0073280344 1.0176001
-0.51635551 0.0029113349 1.017
-0.50937653 0.0083866753 1.0115
0.58492672 0.0056651998 1.0115
0.59138334 0.0043139099 1.0176667
-0.50912702 0.01386585 1.0109999
0.58599436 0.015330234 1.0133333
-0.52390701 0.029163901 1.018
-0.51568097 0.026838301 1.0139999
0.58332664 0.025405934 1.012
-0.53397703 0.037282851 1.013
-0.52642602 0.0317454 1.012
0.58497298 0.033369347 1.0165
-0.68446034 0.048920333 1.013
-0.67423058 0.048987541 1.016
-0.66340035 0.049011666 1.018
-0.60677266 0.048723832 1.0176667
-0.56943601 0.048381001 1.013
-0.55921602 0.045466501 1.01
-0.54103303 0.040051099 1.013
0.58068395 0.0458159 1.0165
-0.69535762 0.056556568 1.0153333
-0.64416528 0.051679134 1.0176667
-0.63307852 0.051494047 1.0150001
-0.62631029 0.051508199 1.016
-0.61651951 0.05127085 1.0120001
0.56921703 0.059746899 1.0190001
0.57494402 0.054220349 1.0190001
-0.7109865 0.064754248 1.0175
-0.7060765 0.061766751 1.015
-0.69861299 0.060085598 1.011
0.5573467 0.064875133 1.013
-0.71562266 0.076405503 1.0156666
-0.707389 0.071277 1.01
0.550053 0.070156999 1.01
-0.71731299 0.080129497 1.015
0.41547999 0.089361198 1.013
0.42028901 0.089802101 1.018
0.43528867 0.086733334 1.0143334
0.44836 0.087138496 1.0190001
0.45443219 0.086718105 1.0140001
0.47474399 0.089668699 1.0159999
-0.70648116 0.095030978 1.0136
-0.69843203 0.099083602 1.01
0.39521423 0.096988328 1.0137501
0.40567726 0.092751421 1.0125
0.48305801 0.092169404 1.013
0.49203268 0.095886104 1.0133334
-0.6934815 0.103569 1.0139999
-0.68423629 0.10483025 1.0139999
-0.67478901 0.102088 1.016
-0.66588002 0.103883 1.0140001
-0.65428799 0.10450525 1.01475
-0.64512652 0.104373 1.0144999
-0.63883197 0.104254 1.0139999
-0.61019599 0.103868 1.013
-0.59103501 0.10667 1.015
-0.58410501 0.109693 1.018
0.37593949 0.1072775 1.0135
0.38510475 0.1020295 1.016
0.49746132 0.10319967 1.013
0.50202352 0.107809 1.0174999
-0.57147902 0.114931 1.016
0.35725901 0.119361 1.011
0.36701199 0.11436534 1.0153333
0.5056197 0.11549175 1.0120001
-0.52290046 0.126331 1.01
-0.51243001 0.128516 1.017
-0.50380832 0.125901 1.011
0.35368201 0.1236605 1.0125
0.50768578 0.12337559 1.0158
0.51298398 0.12814701 1.0140001
-0.518466 0.1310585 1.015
-0.5037955 0.1380775 1.0165
0.33980301 0.13925099 1.016
0.34409499 0.135178 1.0165
0.51698053 0.13499299 1.0135
-0.50430858 0.1442574 1.0152
-0.4985795 0.14838499 1.0115
0.32543901 0.147246 1.0140001
0.33244401 0.143188 1.0145
0.51995599 0.14156 1.011
0.526941 0.14824399 1.0190001
-0.50224966 0.15334268 1.0170001
-0.49518988 0.15653901 1.0140001
0.2167425 0.1581735 1.0115
0.22493124 0.15793249 1.0145
0.23400976 0.15870349 1.01525
0.24540782 0.15785879 1.0136
0.2550526 0.15687099 1.0140001
0.2648133 0.15745272 1.0154287
0.27419573 0.15528025 1.01175
0.28204 0.15506351 1.0105
0.317532 0.152909 1.015
0.32428801 0.150739 1.0190001
0.52706647 0.15261251 1.0109999
-0.49196801 0.16126899 1.015
-0.48529267 0.16516149 1.0136666
0.0065149702 0.16935568 1.01
0.0147685 0.16935401 1.01
0.0202707 0.169351 1.01
0.036775298 0.16934 1.01
0.045056667 0.16944401 1.0106667
0.057428949 0.169401 1.0105
0.066705763 0.16875367 1.0121666
0.075406455 0.1682265 1.0118333
0.084489241 0.16808842 1.0122858
0.094689839 0.166843 1.012
0.10418861 0.1665048 1.0134
0.11565112 0.16608989 1.011875
0.12488449 0.16531867 1.0115
0.13522114 0.16801472 1.0125715
0.14397933 0.16832434 1.0106667
0.15509701 0.16937132 1.0116667
0.16604425 0.16862425 1.0115
0.17470634 0.16603799 1.0139999
0.184738 0.16453625 1.01625
0.19424024 0.16176073 1.012
0.20465632 0.16114199 1.0126667
0.21500875 0.16167951 1.01625
0.53622901 0.16472849 1.0174999
-0.48505199 0.170003 1.018
-0.47387737 0.1734198 1.0156
-0.46508166 0.17642899 1.013
-0.457241 0.179887 1.012
-0.202038 0.17987899 1.01
-0.199305 0.17988899 1.01
-0.1377285 0.177356 1.01
-0.120023 0.177582 1.011
-0.11441767 0.17742001 1.01
-0.105202 0.17810276 1.01375
-0.095392466 0.17781699 1.012
-0.085948475 0.17823325 1.01425
-0.074312188 0.17703713 1.0140001
-0.065861203 0.17675181 1.015
-0.055641778 0.17429176 1.015
-0.0445939 0.17430487 1.015
-0.034551863 0.17523901 1.0143751
-0.02632042 0.17508624 1.015
-0.014187775 0.17430399 1.0148751
-0.004507788 0.17415567 1.0140001
0.0056287074 0.17486344 1.0154445
0.014841567 0.17572354 1.0151111
0.024516692 0.17571408 1.0150834
0.035572674 0.1743115 1.015
0.045261163 0.17435884 1.0153333
0.054630879 0.17571719 1.0167273
0.064713933 0.17323899 1.017
0.0746921 0.17380899 1.0171999
0.085953146 0.17417966 1.0173334
0.094559543 0.1714634 1.0165999
0.105206 0.17112339 1.018
0.11449639 0.17203659 1.017
0.12420025 0.17039748 1.0172501
0.135213 0.17239475 1.017
0.14476967 0.17432149 1.0163333
0.15365501 0.17400517 1.0173334
0.16396199 0.17276765 1.0156667
0.172626 0.170379 1.018
0.54209799 0.172694 1.015
-0.46228501 0.180787 1.017
-0.45438999 0.183697 1.018
-0.44822502 0.182871 1.0135
-0.43409002 0.18603499 1.016
-0.42439523 0.1880845 1.016
-0.41488451 0.18819748 1.013
-0.25404868 0.18802033 1.0106666
-0.24584025 0.18909299 1.0162499
-0.23512621 0.18648081 1.0138
-0.22542433 0.18655367 1.017
-0.21463999 0.1857512 1.0154001
-0.204445 0.18355826 1.01525
-0.195619 0.18299626 1.0157499
-0.18466373 0.18248545 1.0154287
-0.17540766 0.18209402 1.0141667
-0.1648386 0.18116739 1.0134001
-0.15573733 0.18173166 1.0143334
-0.1453785 0.18246235 1.0156667
-0.13561299 0.1809475 1.01475
-0.12465475 0.181068 1.01525
-0.115128 0.18128732 1.0163333
-0.109893 0.181777 1.0190001
-0.40382835 0.19155701 1.0163335
-0.39344651 0.1925845 1.0145
-0.38326931 0.19366498 1.013
-0.373842 0.19376226 1.0135
-0.36598167 0.19469166 1.0183333
-0.355703 0.19435051 1.0165
-0.348138 0.1932105 1.0105
-0.33355552 0.1970395 1.016
-0.32781601 0.196078 1.011
-0.31814101 0.199625 1.015
-0.30403799 0.199397 1.0136666
-0.28374651 0.1968755 1.0145
-0.27367333 0.19380933 1.0126667
-0.26459351 0.19213575 1.0145
0.562374 0.19234399 1.015
-0.31495601 0.200225 1.018
-0.29983899 0.20026501 1.018
0.49169999 -0.13984101 1.022
0.4850935 -0.1219005 1.023
0.47899801 -0.112391 1.025
0.48196399 -0.11684499 1.0233332
0.469192 -0.100959 1.022
0.47487921 -0.107215 1.0233999
0.198028 -0.090659201 1.027
0.20431201 -0.090349831 1.0236667
0.214965 -0.092924632 1.0216666
0.22487874 -0.093000904 1.02275
0.237602 -0.095866397 1.024
0.244078 -0.0990187 1.028
0.256569 -0.098988354 1.028
0.26122651 -0.09863805 1.0245
0.28154799 -0.098444797 1.023
0.29715401 -0.09855485 1.0245
0.3168115 -0.093049005 1.0255001
0.44930899 -0.091730103 1.0275
0.45548317 -0.094351061 1.0256666
0.46346778 -0.09795054 1.0253999
-0.352965 -0.082069799 1.028
-0.34630001 -0.081811331 1.0246667
-0.33461076 -0.082371697 1.0227499
-0.32608381 -0.083574079 1.0253999
-0.31567028 -0.082842141 1.023875
-0.30586335 -0.082146101 1.028
0.12735817 -0.08422187 1.0263335
0.134527 -0.083017796 1.026
0.14519176 -0.082421526 1.0274999
0.15473199 -0.082984574 1.026
0.16467699 -0.082367398 1.0272499
0.17535374 -0.082824625 1.0245
0.18556741 -0.085985959 1.0242001
0.19316633 -0.087562598 1.0233334
0.32569951 -0.088641003 1.023
0.33121499 -0.0844739 1.023
0.43735433 -0.08183077 1.0256667
0.44474792 -0.084741712 1.0234444
0.45231304 -0.089827068 1.0216666
0.55199301 -0.081932597 1.024
-0.4518705 -0.070913404 1.0285001
-0.44495735 -0.070921995 1.0286667
-0.43396157 -0.071696952 1.0238
-0.42509726 -0.073408201 1.0245001
-0.41424835 -0.074303299 1.024
-0.403308 -0.075341187 1.0254999
-0.39454129 -0.073917918 1.0258572
-0.38558644 -0.074197292 1.0241429
-0.37592682 -0.075700633 1.0238334
-0.36397249 -0.078649499 1.02
-0.35744649 -0.078734696 1.021
-0.30398199 -0.078868568 1.0216666
-0.29514781 -0.075281113 1.024
-0.28461486 -0.072350785 1.0241429
-0.27771133 -0.07092277 1.0263333
-0.15443175 -0.071271405 1.02825
-0.14457567 -0.071245529 1.0276666
-0.13451825 -0.071109124 1.0255001
-0.12497801 -0.071249433 1.0273334
-0.102784 -0.071392097 1.029
-0.099885598 -0.071325801 1.028
0.086376294 -0.07120055 1.026
0.094596967 -0.072470322 1.02425
0.10557212 -0.072922535 1.025875
0.11463622 -0.073570348 1.0247779
0.12373623 -0.076852374 1.0232222
0.135364 -0.078499198 1.02175
0.14363416 -0.078350581 1.0230001
0.15547334 -0.078228928 1.0216666
0.16528134 -0.07918907 1.0223334
0.170607 -0.079075903 1.021
0.34561321 -0.076827079 1.0248001
0.3565675 -0.07206817 1.0245
0.36515665 -0.070724666 1.0253334
0.37589973 -0.070916377 1.02825
0.38633701 -0.070786446 1.0265
0.39533401 -0.070653498 1.0246668
0.40505272 -0.070654303 1.02475
0.41475648 -0.072043002 1.02475
0.42456925 -0.074140452 1.025
0.43383265 -0.077909894 1.0228333
0.5548377 -0.076371469 1.024
-0.47460979 -0.063615382 1.0274001
-0.46549666 -0.063841581 1.0266666
-0.45526701 -0.065627217 1.0242
-0.44677725 -0.067086175 1.0232501
-0.43929699 -0.067692101 1.022
-0.27460819 -0.067364536 1.023
-0.26510155 -0.064985633 1.0251112
-0.25440058 -0.063900836 1.028
-0.24545801 -0.063385971 1.0275
-0.22414149 -0.063282147 1.02525
-0.21488988 -0.063925177 1.024125
-0.20420001 -0.066861786 1.0261668
-0.19495517 -0.065050758 1.0233636
-0.18498139 -0.065702096 1.0253637
-0.17489731 -0.066865087 1.0255001
-0.16499712 -0.066815808 1.0244999
-0.15451244 -0.066079997 1.0221429
-0.145226 -0.066703446 1.0223751
-0.13445801 -0.067123227 1.0215
-0.125113 -0.066496775 1.021857
-0.11493644 -0.066356272 1.0235555
-0.1044804 -0.067112997 1.0236
-0.095809057 -0.066595756 1.0228571
-0.08424294 -0.064616501 1.025
-0.075411186 -0.064082541 1.0270001
-0.06427297 -0.064680919 1.0257778
-0.05567275 -0.063548774 1.02625
-0.045179375 -0.062853351 1.02625
-0.0353893 -0.062882863 1.0266666
-0.024766019 -0.06349232 1.0273999
-0.014364924 -0.062816724 1.0255001
-0.0045737703 -0.064291053 1.0266666
0.0052236491 -0.064186841 1.025
0.0150259 -0.064227365 1.0256667
0.023471873 -0.063654423 1.02775
0.035181142 -0.063950703 1.0258
0.044375114 -0.06416177 1.02475
0.056138705 -0.065023899 1.0252001
0.064973928 -0.06519118 1.0246251
0.075492673 -0.065290995 1.0248181
0.083893083 -0.065783069 1.0224286
0.105527 -0.068117946 1.022
0.117811 -0.067970298 1.02
0.36912099 -0.067653 1.021
0.37627825 -0.067696601 1.02175
0.55834502 -0.067777 1.02
0.56427753 -0.063816853 1.023
-0.49367264 -0.052187234 1.025
-0.48372152 -0.056422114 1.0251429
-0.47527122 -0.057788502 1.0228
-0.4654735 -0.059367128 1.0214999
-0.26251799 -0.059487302 1.021
-0.25521758 -0.058352519 1.0217143
-0.24415681 -0.059054684 1.0225999
-0.23621175 -0.05898105 1.0235001
-0.2283825 -0.0596283 1.0225
-0.074203968 -0.059750032 1.0213332
-0.064439297 -0.059736952 1.021
-0.054677665 -0.059723098 1.0206666
-0.046325598 -0.059727166 1.0206667
-0.034659404 -0.058673061 1.0216
-0.025457386 -0.058384839 1.0213749
-0.015144761 -0.059222478 1.0214
-0.0045523001 -0.059120052 1.022
0.0010265301 -0.059815802 1.022
0.013558051 -0.05972705 1.0204999
0.026147665 -0.059851434 1.0226667
0.0316764 -0.0597523 1.021
0.0427773 -0.059689701 1.02
0.056746829 -0.059741497 1.021
0.065094799 -0.059736565 1.0209999
0.072091356 -0.059761301 1.0215
0.56801599 -0.0596007 1.022
0.57399952 -0.055604249 1.025
0.58001 -0.051587701 1.028
0.66977602 -0.0520427 1.029
0.67568928 -0.052063402 1.0286666
-0.51254398 -0.040314998 1.029
-0.50424552 -0.044386752 1.0265
-0.49717698 -0.0455135 1.0206666
0.57548702 -0.0484102 1.02
0.58486146 -0.043699153 1.0246667
0.59445745 -0.042376015 1.0264286
0.60487717 -0.041874271 1.0281668
0.61626279 -0.041232351 1.0287499
0.62988901 -0.040549699 1.028
0.63585395 -0.040571999 1.028
0.6454106 -0.043364707 1.0265001
0.65511429 -0.044454079 1.0255386
0.66577584 -0.043723661 1.0229285
0.6723724 -0.0483572 1.0217999
0.68330264 -0.046171602 1.0216666
-0.52104199 -0.0319492 1.029
-0.51407653 -0.034601476 1.025
-0.50541699 -0.037204567 1.0203333
0.58872795 -0.035968401 1.0204999
0.595402 -0.034644835 1.022
0.60430688 -0.035084974 1.024125
0.61482137 -0.034565661 1.0258181
0.62595868 -0.034891121 1.027
0.63603586 -0.034887325 1.0259167
0.64565122 -0.034876511 1.0245557
0.65503097 -0.03485401 1.02275
0.66469657 -0.034846101 1.0213332
0.67121851 -0.036296353 1.022
0.694484 -0.037743598 1.02
-0.52447951 -0.023449302 1.02325
-0.51749301 -0.02757515 1.0220001
0.59764612 -0.026255539 1.0203999
0.60528898 -0.024907529 1.0215
0.61527759 -0.025171865 1.0235
0.62503552 -0.025144864 1.0245454
0.63425857 -0.025061175 1.0254999
0.64447755 -0.025074318 1.0251249
0.65511388 -0.025054974 1.0229377
0.66491902 -0.02419108 1.0208
0.67355597 -0.02085915 1.021
0.68508601 -0.022753051 1.0206666
0.6922524 -0.024327759 1.0232
-0.52715468 -0.015127934 1.0243334
0.598553 -0.0123505 1.02
0.60589486 -0.014755771 1.0211428
0.61556315 -0.015208443 1.024
0.62488711 -0.015230879 1.0247779
0.63471156 -0.0149693 1.0253
0.64465022 -0.015901089 1.0262222
0.65482795 -0.01506383 1.0242143
0.66449255 -0.015239422 1.0211111
0.67544979 -0.015558119 1.0225
0.68336892 -0.014836884 1.0235
0.69024098 -0.018127199 1.023
-0.52440453 -0.0040072999 1.0244999
0.59811455 -0.0054036723 1.0204999
0.60538393 -0.005092842 1.0224617
0.61539567 -0.0058087376 1.0241817
0.62502658 -0.0051130983 1.0257692
0.63572836 -0.0055880984 1.0283636
0.64473712 -0.0076663974 1.0272857
0.65412909 -0.006862883 1.0261666
0.6652028 -0.0072826017 1.0233078
0.6749444 -0.0068729804 1.025
0.682096 -0.0082996748 1.027
-0.52335602 0.0043404 1.028
-0.51950753 0.0085069602 1.026
0.59657979 0.0065611056 1.0225999
0.60514414 0.005050004 1.0258332
0.61393702 0.0037991058 1.0272
-0.52194297 0.0154997 1.028
-0.51824498 0.016814701 1.0235
0.59589005 0.014929439 1.0233999
0.60310525 0.014859149 1.02775
-0.52554476 0.0243678 1.0256001
-0.51788402 0.022295199 1.02
0.58986098 0.023765 1.02
0.59295505 0.025710965 1.0236667
-0.54225999 0.037768401 1.026
0.588148 0.0377209 1.022
-0.69493634 0.047716767 1.027
-0.68680954 0.046768501 1.028
-0.66141999 0.049490102 1.029
-0.65865099 0.0490738 1.02
-0.61522901 0.0489549 1.022
-0.60291302 0.0488608 1.021
-0.57624799 0.048723999 1.02
-0.56928802 0.046059299 1.023
0.588139 0.046287 1.027
0.59045798 0.040662602 1.026
-0.71343482 0.0570076 1.0252001
-0.70441264 0.056121934 1.024
-0.69744599 0.052262601 1.023
-0.65154898 0.051971398 1.023
-0.64727497 0.0518534 1.021
0.57607102 0.054327101 1.021
-0.72281224 0.06392698 1.0258
-0.71826392 0.06387613 1.0256667
0.56747198 0.062631898 1.021
-0.72357649 0.073747352 1.0239999
-0.718261 0.072088197 1.021
-0.71810502 0.086172149 1.0204999
0.423879 0.089978598 1.02
0.44485801 0.087264046 1.0204999
-0.722767 0.0924097 1.027
-0.71646047 0.096582651 1.027
0.40573534 0.097640134 1.0229999
0.41403964 0.0948667 1.0229999
0.424142 0.091723002 1.0239999
0.43429932 0.09042117 1.025
0.47264099 0.090584598 1.0265
0.48621523 0.0946934 1.0255001
0.49321401 0.097210646 1.0225
-0.70208645 0.1044315 1.0220001
-0.69283903 0.109197 1.029
-0.68201602 0.105785 1.0244999
-0.67554301 0.1070645 1.0239999
-0.66439301 0.108714 1.028
-0.63567305 0.10510901 1.02325
-0.62550431 0.10504633 1.0236667
-0.61857003 0.104818 1.022
-0.60330701 0.107874 1.026
-0.59803098 0.107429 1.022
0.38477933 0.10696233 1.0236667
0.39514875 0.102855 1.0242499
0.40176499 0.101733 1.027
0.4981685 0.102922 1.0239999
0.50344402 0.107618 1.029
-0.58294898 0.112779 1.021
0.374663 0.1147515 1.025
0.50762099 0.1149858 1.0247999
-0.51321054 0.1297605 1.027
0.3558 0.1276485 1.0225
0.36269951 0.122102 1.0225
0.5074355 0.122587 1.0255001
0.51520902 0.129397 1.024
-0.51981902 0.132456 1.026
-0.50649548 0.133277 1.0220001
0.34975499 0.131623 1.021
0.51887399 0.13446499 1.02
0.52194202 0.138046 1.026
-0.51288497 0.149582 1.029
-0.50935203 0.140231 1.022
0.34037399 0.143406 1.026
0.52676749 0.14518851 1.027
-0.51192749 0.1562715 1.027
-0.50566822 0.15749949 1.0215
0.27559102 0.15962635 1.022
0.31389299 0.156592 1.021
0.53304237 0.15726167 1.0233332
-0.51245099 0.16061801 1.028
-0.50450629 0.16489427 1.025
-0.49584636 0.16568699 1.0218
0.17867699 0.16809601 1.021
0.18523367 0.16901 1.0266666
0.19459523 0.1672775 1.02475
0.20565125 0.1658065 1.0245
0.2142815 0.166021 1.026
0.22581966 0.16250834 1.0216666
0.2343982 0.1641904 1.0254
0.24419975 0.16273825 1.0235
0.25476176 0.16238275 1.0215
0.26480433 0.162589 1.0230001
0.27164701 0.163366 1.028
0.28506699 0.16027734 1.0263333
0.29135901 0.160677 1.029
0.54032499 0.166417 1.028
-0.49334651 0.171444 1.0265
-0.4857417 0.17493133 1.0253333
-0.47699535 0.17848931 1.0246667
-0.061555251 0.1795505 1.0215
-0.0546492 0.17970634 1.0223333
-0.044460833 0.17977734 1.0226667
-0.037865099 0.179315 1.02
-0.022148566 0.17858033 1.021
-0.014270075 0.1795055 1.021
-0.0045379866 0.17950802 1.021
0.0038033898 0.17956667 1.0213333
0.035768576 0.17944875 1.02075
0.045507401 0.179483 1.021
0.059461199 0.17964201 1.022
0.064346723 0.1776 1.0222499
0.075172931 0.17811583 1.0213333
0.085892551 0.17964026 1.0222501
0.095608808 0.1768066 1.0220001
0.10522071 0.17574586 1.0228571
0.11558039 0.1778336 1.0217999
0.12481762 0.17541587 1.022375
0.13538133 0.17667834 1.0218333
0.14321166 0.17997967 1.025
0.15583299 0.17768466 1.0226666
0.16514033 0.17678732 1.0229999
0.17347066 0.17306399 1.023
0.544671 0.173958 1.0225
-0.472002 0.18241 1.026
-0.46523702 0.183337 1.0235
-0.45520401 0.18662865 1.024
-0.44501367 0.18715633 1.022
-0.206497 0.18818824 1.0255001
-0.191893 0.188885 1.029
-0.18457 0.18854275 1.027
-0.174613 0.18740968 1.0256667
-0.16564167 0.18725599 1.0246667
-0.1544008 0.1870594 1.0244
-0.14439639 0.1876436 1.0244
-0.13470915 0.18704486 1.0244286
-0.125191 0.18670242 1.0245713
-0.11501599 0.18698902 1.026
-0.10496278 0.18564467 1.0250001
-0.095639773 0.18374255 1.0231428
-0.084722392 0.18462457 1.0257143
-0.074592106 0.18502945 1.0246667
-0.065496899 0.18392533 1.0253333
-0.054388296 0.18460599 1.028
-0.046051737 0.18335366 1.0271667
-0.035287183 0.18451701 1.0258332
-0.025498699 0.18446387 1.0254999
-0.014332613 0.18451412 1.02575
-0.0040008002 0.18431941 1.0262001
0.0052181599 0.18456188 1.026
0.015369629 0.18482199 1.024143
0.024195809 0.1852285 1.0251
0.034569684 0.18463683 1.0265
0.043759733 0.18533869 1.0258001
0.055433664 0.18429989 1.02475
0.065860406 0.1820768 1.0264
0.075304411 0.18365344 1.0268571
0.084837466 0.18314266 1.0263333
0.094624199 0.18176176 1.0265
0.10723175 0.181126 1.0270001
0.1139492 0.18267581 1.0272
0.12445884 0.1813435 1.0271667
0.133736 0.18035901 1.027
0.148919 0.18013901 1.026
0.15595299 0.18020451 1.0265
0.55420697 0.184081 1.0239999
-0.43542933 0.19058134 1.0256666
-0.422838 0.19396301 1.029
-0.41427267 0.192572 1.0216666
-0.40288001 0.196538 1.028
-0.39753601 0.19596201 1.025
-0.3823505 0.199512 1.029
-0.37514067 0.19938532 1.0283333
-0.361063 0.195015 1.02
-0.35399249 0.19924301 1.0275
-0.34519199 0.19818668 1.022
-0.339001 0.197808 1.02
-0.28363901 0.19970199 1.029
-0.26732051 0.1962015 1.025
-0.25550649 0.19289976 1.0220001
-0.24688768 0.19375199 1.0263333
-0.233877 0.19058453 1.0239999
-0.21694399 0.191581 1.029
-0.324478 0.20099248 1.0220001
-0.31205499 0.201022 1.022
-0.29540476 0.201957 1.0265
0.49270299 -0.130486 1.036
0.48873401 -0.12456634 1.0336666
0.47918749 -0.1120185 1.0345
0.48227599 -0.115958 1.0319999
0.26912501 -0.102843 1.039
0.27454323 -0.1022325 1.033
0.46565899 -0.102622 1.039
0.47329348 -0.1035455 1.0339999
0.128327 -0.091770098 1.038
0.132624 -0.091807202 1.0385001
0.19255768 -0.091380596 1.035
0.20546326 -0.09430255 1.0365
0.2144585 -0.095322356 1.0325
0.22035401 -0.096849002 1.034
0.236184 -0.096999802 1.036
0.245022 -0.099404 1.0320001
0.25224102 -0.099483296 1.033
0.28680801 -0.0993044 1.0319999
0.29515699 -0.099285498 1.0319999
0.31460851 -0.098276049 1.0365
0.32593501 -0.092269346 1.0325
0.44700241 -0.092008576 1.0337999
0.45505023 -0.097653665 1.0342001
-0.39458048 -0.082907453 1.039
-0.37387198 -0.082686201 1.036
-0.36495849 -0.082576223 1.0345
-0.356774 -0.082305603 1.031
-0.34420863 -0.085450329 1.035
-0.33592799 -0.085131049 1.031
-0.32577351 -0.088587552 1.0385001
-0.3146368 -0.087187842 1.0350001
-0.3044565 -0.084821001 1.0350001
-0.29489058 -0.082264423 1.0361999
-0.28422165 -0.080071636 1.0366668
0.095954351 -0.080586851 1.039
0.10507434 -0.081284411 1.0359999
0.115279 -0.083622515 1.0347999
0.1232208 -0.086275578 1.033
0.13578649 -0.087637305 1.0338334
0.14479132 -0.087225892 1.0346667
0.15435028 -0.087365337 1.0341427
0.16544284 -0.086746834 1.035
0.17476772 -0.087315999 1.034
0.1825735 -0.088501349 1.0339999
0.33944601 -0.084100395 1.0355
0.35286599 -0.080059297 1.038
0.42895901 -0.0800777 1.039
0.43495315 -0.084106937 1.0341429
0.44328535 -0.08801537 1.0329999
0.56134599 -0.080087401 1.036
-0.4732275 -0.071614698 1.0385001
-0.46399051 -0.07208702 1.0352499
-0.45477861 -0.073479198 1.0332
-0.44517133 -0.0751478 1.0356666
-0.43578538 -0.076288201 1.0333999
-0.42497167 -0.076915666 1.0343333
-0.4152303 -0.077780001 1.0333333
-0.40525332 -0.079698734 1.034
-0.39537242 -0.079069242 1.033
-0.3842175 -0.079694249 1.0337501
-0.37696999 -0.079643004 1.033
-0.29468101 -0.079727754 1.0325
-0.28574982 -0.077421777 1.0314
-0.27530473 -0.074905671 1.0350001
-0.26553941 -0.072111242 1.0350001
-0.25500122 -0.072311923 1.0376
-0.212173 -0.071853101 1.038
-0.20455568 -0.071657866 1.035
-0.19370949 -0.072583564 1.0345
-0.18501399 -0.073137902 1.0355
-0.17499876 -0.073075995 1.034375
-0.164471 -0.073741995 1.035
-0.155214 -0.0744486 1.0335
-0.14422676 -0.075297847 1.0352499
-0.13498528 -0.075704344 1.0337143
-0.1255195 -0.075591467 1.0356667
-0.11530757 -0.072915807 1.0337142
-0.10554334 -0.073557071 1.0331666
-0.094893165 -0.073206648 1.0346667
-0.0851845 -0.071931154 1.0365
-0.075142495 -0.071789503 1.0343333
-0.065283902 -0.071808755 1.0345
-0.0555452 -0.071988963 1.0369999
-0.045690801 -0.072063997 1.038
-0.03403382 -0.073103562 1.0365999
-0.026092341 -0.072485238 1.0358
-0.014528275 -0.072039947 1.0374999
-0.0046253796 -0.072098903 1.0383334
0.0052872226 -0.07205835 1.03775
0.015170765 -0.071912564 1.0356667
0.025096625 -0.07200285 1.0369999
0.034940433 -0.073298335 1.0353333
0.044267919 -0.073169604 1.0364286
0.0547079 -0.073287666 1.0353333
0.064610049 -0.073303118 1.0356251
0.075223915 -0.073027968 1.0347143
0.084664583 -0.075357169 1.035
0.095307499 -0.077232376 1.0320001
0.1036895 -0.077185303 1.0315
0.11475025 -0.078461647 1.03
0.34838101 -0.079677403 1.033
0.3556945 -0.076942354 1.0339999
0.36521801 -0.074080229 1.0333333
0.37478101 -0.074310362 1.0366666
0.38413301 -0.074217677 1.0354999
0.39425975 -0.074011996 1.03275
0.40571702 -0.074059233 1.0335001
0.41289949 -0.073840797 1.0304999
0.42559201 -0.076909453 1.03425
0.43067801 -0.079615198 1.033
0.56437701 -0.071312003 1.031
-0.48575452 -0.062969476 1.035
-0.47445428 -0.06857045 1.0350001
-0.46619233 -0.067456298 1.0323334
-0.45953101 -0.068229303 1.03
-0.26355553 -0.068439402 1.0304999
-0.25591001 -0.068006881 1.0322
-0.24482884 -0.067281455 1.0336666
-0.23497023 -0.06533809 1.0346665
-0.22597341 -0.06772317 1.0355999
-0.21576701 -0.068823971 1.035
-0.20914701 -0.0685011 1.03
-0.091667801 -0.068666302 1.03
-0.084918901 -0.068889499 1.03325
-0.075022839 -0.068859003 1.0326667
-0.066472337 -0.068754263 1.031
-0.0547265 -0.067718126 1.0322001
-0.045498114 -0.067536473 1.033625
-0.035574768 -0.06743329 1.0319999
-0.026315486 -0.06761764 1.0317142
-0.014449426 -0.06742277 1.03175
-0.0046071336 -0.068978369 1.0339999
0.0052639451 -0.068894923 1.03275
0.015134934 -0.068910562 1.033
0.025706274 -0.067159578 1.0331249
0.034084 -0.068053097 1.03075
0.044641674 -0.068767369 1.0309999
0.05302595 -0.068696253 1.03
0.068472899 -0.068686098 1.03
0.0713498 -0.068750598 1.031
0.57505077 -0.064718395 1.03725
-0.50400567 -0.052685667 1.0346667
-0.49517766 -0.05638063 1.0339999
0.58528733 -0.054878235 1.0373334
0.61276799 -0.052234299 1.039
0.63606048 -0.052720964 1.0371666
0.6449573 -0.055079035 1.0361111
0.65513796 -0.053173002 1.0346667
0.66529644 -0.053948749 1.0355713
0.67392105 -0.055203799 1.0353333
0.68405002 -0.052271001 1.0319999
-0.51422441 -0.044517063 1.0357999
-0.50744247 -0.047468349 1.033
0.58865899 -0.049045201 1.033
0.59626603 -0.047947221 1.033
0.60567325 -0.047917366 1.0334285
0.61482471 -0.045977637 1.0331249
0.62521523 -0.045299862 1.0334615
0.6349386 -0.046662949 1.0330908
0.64395303 -0.047779832 1.0313333
0.66473299 -0.049265563 1.0306667
0.69488865 -0.046767164 1.0343332
0.70023203 -0.043894898 1.033
-0.52459365 -0.034973864 1.036
-0.51587498 -0.037563201 1.03
0.62515098 -0.037795302 1.03
-0.53250396 -0.02799925 1.0375
-0.52657801 -0.027830549 1.0315
-0.53654301 -0.0153221 1.0369999
-0.53264099 -0.0082661351 1.035
-0.527731 -0.0040395502 1.031
0.64460987 -0.0026580503 1.0301666
0.65611702 -0.00125338 1.0316666
0.66566467 -0.0012554134 1.0323334
0.67416298 -0.00126073 1.036
0.68408 -0.0041092699 1.0369999
-0.52770305 0.0062407837 1.0346667
0.61542028 0.007180287 1.0303334
0.62542158 0.004388955 1.033
0.63496536 0.0044009658 1.0347778
0.64399111 0.0044019567 1.034
0.65406227 0.0035986255 1.0345714
0.66404569 0.00228847 1.03575
-0.53470403 0.0184862 1.039
-0.52702636 0.015577666 1.0333333
0.60707247 0.0170311 1.0319999
0.61504394 0.013337616 1.0355
0.62468439 0.01119538 1.0372
0.63444352 0.010078 1.038
-0.53385097 0.024088033 1.0373334
0.59915203 0.0240261 1.031
0.60323548 0.0241428 1.0355
0.59566098 0.0324132 1.03
0.60087299 0.035526201 1.039
-0.706267 0.047219399 1.036
-0.699045 0.046925999 1.03
-0.68328351 0.046914302 1.0320001
-0.67940998 0.047038499 1.0355
-0.624825 0.049494199 1.033
0.59679699 0.043922599 1.0369999
-0.72562999 0.057267047 1.034
-0.71250403 0.054278553 1.0335
-0.72714299 0.068042435 1.0306667
0.56958997 0.065975502 1.03
-0.73219502 0.084656201 1.036
-0.72478902 0.086975403 1.03
-0.730555 0.096274503 1.038
-0.727328 0.096227199 1.038
0.41429549 0.099620506 1.0339999
0.4260222 0.095754243 1.0346
0.43453199 0.094152346 1.0355
0.44414383 0.09243162 1.0350001
0.45437598 0.091106065 1.0326667
0.46425423 0.091122374 1.03275
0.470494 0.090976 1.031
0.48540676 0.09563005 1.0357499
0.49567997 0.099648148 1.0335
-0.72006899 0.104195 1.0319999
-0.70633602 0.109976 1.035
-0.69582897 0.10937033 1.0303333
-0.68771535 0.10973567 1.0353333
-0.67290765 0.10918033 1.0316666
-0.66494954 0.1095025 1.036
-0.65920597 0.109728 1.039
0.389016 0.107621 1.03
0.39490899 0.108088 1.0345
0.40348926 0.10533525 1.0350001
0.41168299 0.10282 1.038
0.420111 0.100005 1.038
0.49404699 0.100169 1.039
0.503075 0.1056335 1.0369999
-0.59449798 0.111117 1.031
0.3788625 0.11814401 1.0365
0.38689199 0.11241 1.0355
0.39241299 0.111377 1.039
0.50704932 0.114009 1.0363334
0.51033622 0.116771 1.0357499
0.358401 0.12998401 1.03
0.3673065 0.12645949 1.0355
0.370967 0.122068 1.034
0.51252198 0.127331 1.03
-0.53402102 0.133922 1.0369999
-0.51481998 0.138933 1.033
0.35465965 0.13627566 1.0353333
0.51838201 0.1309 1.036
0.52159798 0.13309801 1.031
-0.52072799 0.14822701 1.039
-0.51870799 0.144842 1.035
0.34491199 0.14473799 1.0355
0.52500999 0.14165901 1.0319999
-0.51659346 0.155872 1.0335
0.325634 0.155463 1.0319999
0.335942 0.15072501 1.038
0.53420001 0.153092 1.033
-0.51521951 0.1656985 1.0335
-0.50687146 0.169457 1.0309999
0.19718 0.169686 1.031
0.219294 0.16665301 1.03
0.22508264 0.16679601 1.031
0.234721 0.1666815 1.0304999
0.24482767 0.16688998 1.0320001
0.25408831 0.16745467 1.0356666
0.260268 0.167813 1.038
0.27575701 0.164151 1.033
0.296244 0.161055 1.0315
0.30608201 0.16157566 1.035
0.31230301 0.161401 1.034
-0.51362503 0.170305 1.036
-0.50375152 0.17381026 1.03625
-0.4945955 0.177073 1.035
-0.48985901 0.17828099 1.034
0.17532666 0.177728 1.034
0.18226001 0.17295 1.0335
0.20273501 0.1708235 1.038
0.54987699 0.17606901 1.035
-0.48418701 0.181063 1.034
-0.47615001 0.18588763 1.035
-0.46455967 0.18816866 1.0323333
-0.20063899 0.18922301 1.031
-0.19626251 0.18905401 1.03
-0.17255101 0.189137 1.03
-0.113864 0.18931399 1.03
-0.096202828 0.18854833 1.0306667
-0.083284803 0.18987399 1.0326667
-0.077541798 0.189578 1.031
-0.064906977 0.18815726 1.0307499
-0.057911798 0.18681601 1.031
-0.043867167 0.18677266 1.0306667
-0.03547227 0.18969668 1.0313333
-0.026118666 0.18976499 1.0316666
-0.017214051 0.1896475 1.031
-0.0059840349 0.188255 1.0309999
0.0080513647 0.18965 1.031
0.0136526 0.18946451 1.03
0.027702551 0.189642 1.0309999
0.034727499 0.18969734 1.0313333
0.047369152 0.1897155 1.0315
0.054345835 0.18955368 1.0306666
0.064244531 0.18838765 1.0319999
0.075208575 0.188685 1.0322001
0.085248865 0.18683 1.0313333
0.096201278 0.18626833 1.0334998
0.10397433 0.18498784 1.0316666
0.11478025 0.18692875 1.03225
0.12535925 0.1862925 1.03275
0.134407 0.18547951 1.03225
0.14354776 0.184799 1.0325
0.15446874 0.1845545 1.0352499
0.16399968 0.18138166 1.0333333
0.17052799 0.182358 1.039
0.56030798 0.185169 1.038
-0.460942 0.193119 1.039
-0.454705 0.19226751 1.0345
-0.44557798 0.1926675 1.033
-0.43431637 0.19536167 1.0363334
-0.42389101 0.19649801 1.035
-0.41526002 0.1977905 1.0345
-0.40805697 0.1970195 1.0304999
-0.26268435 0.19794868 1.034
-0.25834599 0.198925 1.039
-0.241162 0.1947525 1.0315
-0.2368415 0.195811 1.0369999
-0.225657 0.19186099 1.0306667
-0.2140785 0.19215225 1.0319999
-0.186535 0.19337299 1.038
-0.17255899 0.1935145 1.0385001
-0.16486 0.19276135 1.0343333
-0.15510501 0.19287124 1.03475
-0.14507966 0.19263799 1.0333333
-0.13516174 0.19251175 1.0325
-0.12553133 0.19282 1.034
-0.115842 0.1930795 1.0352499
-0.10458875 0.19310749 1.0352499
-0.09482044 0.191401 1.0359999
-0.085076727 0.1928695 1.0375
-0.074976802 0.19299832 1.0343333
-0.06494908 0.19220421 1.036
-0.055352528 0.19047201 1.0356667
-0.044565383 0.19151501 1.0361665
-0.035596799 0.19317599 1.035
-0.025470799 0.19277279 1.0358
-0.01352905 0.19234933 1.0354999
-0.0046038581 0.1922954 1.0362
0.0052688997 0.1917915 1.0350001
0.015125968 0.19318868 1.035
0.024993826 0.19318376 1.035
0.034838233 0.19311434 1.0346667
0.044754922 0.1933535 1.036
0.054607529 0.19327933 1.0356666
0.065957256 0.19391541 1.0369999
0.073459253 0.19390766 1.0366666
0.084217653 0.19118799 1.036
0.09289255 0.190928 1.0385001
0.106901 0.1907115 1.0374999
0.11538325 0.19073649 1.03775
0.12524301 0.19069465 1.0376667
-0.39242551 0.200385 1.0335
-0.38765901 0.200093 1.0319999
-0.370893 0.2001 1.0319999
-0.365058 0.20073624 1.0352499
-0.29003 0.20306 1.0319999
-0.282498 0.200875 1.035
